ply
format ascii 1.0
element vertex 104
property double x
property double y
property double z
end_header
-3.500012727044784 -4.500062427844163 0.994631530298214
-3.500154735498277 -2.499932930252099 0.991172084384264
-3.500296271780812 -3.499808993042179 1.227988771544427
-2.500566908203568 -0.499583475556287 0.997226236976458
-2.500597840024439 -1.499545709363897 0.996675027415447
-2.501085186606879 1.500823015100893 0.996244059499761
-2.500332017319713 0.500212245796279 1.000986889321565
-1.500131734260166 -4.499947272297193 0.995306327163393
-1.502882685017047 2.502307989120882 1.015410243731734
-1.499070804699965 -0.500884413699354 0.998694288256398
-1.501485067155369 3.501133709787674 1.219798751699822
-1.500007613240489 -1.500061477108716 1.272023898580306
-0.499664685806873 4.499667882300800 1.002767858957445
-0.501458050694363 2.501168762169667 1.005377787200276
-0.499335978066274 0.499344882192789 0.999536334799204
-0.498552634868988 -1.501412284465023 1.000027098051085
-0.498211419899192 -3.501819134228401 0.997861159461767
0.499140994971429 4.500653656450734 1.007275579934312
0.499404858374703 3.500443935513516 1.110037278266864
0.498839762954806 2.500942431788216 1.004434897193283
0.497631341891991 1.502038311881374 1.001707396261159
0.499627474701243 0.500268610117431 1.083787954660715
0.499689049018997 -0.499777959747029 1.001365858849734
0.500732852989948 -2.500787514176595 1.001746700378402
0.500384985752505 -3.500458761958789 1.141217870118389
0.500810216320913 -4.500906097852005 0.994089400248653
0.499549353836960 -1.499642591534246 1.165103190036417
1.499168560675432 4.500647514519278 1.013586764221258
1.498290925530821 2.501455769701869 1.007596489744684
1.498395658503477 1.501395484894822 1.001612262284402
1.504955738629493 3.495624408697077 1.037013948522900
1.502425996207713 0.497677056054501 1.001655032487753
1.499986929756136 -0.500053026977513 0.998757383867468
1.501303876905123 -2.501375779110644 1.003099911402000
1.505980859157210 -1.505908748305065 1.038153427588927
2.499769424907571 4.500139613183393 1.004686978820395
2.500238979069244 3.499725577115810 1.004708317862399
2.498986700675255 2.500860510215403 1.009753833007315
2.499189141805875 1.500693238453141 1.002455013401389
2.502602258047188 -3.502818367663858 1.005447303413740
2.502058429380106 -4.502303062025847 1.002550482507588
3.499556792554524 4.500336764462466 1.005402163462641
3.500448777088701 -0.500519044082565 1.002823818092923
3.501044408116137 3.498987794066801 1.164508193138064
3.499928025303467 0.500007379671509 1.103434336133566
3.501023169699533 -4.501208832293346 1.000149658894412
3.500006551767910 -3.500078067511735 1.193705690469738
4.500005919477414 4.499936307207927 1.009500924854315
4.500918650157624 2.499060070767875 1.013001132429126
4.501446880726886 0.498487228321041 1.002308115816374
4.500883096486722 -1.500997538796526 1.000840468856700
4.502839515532382 -3.503210223729120 1.004927858558409
1.500392800021658 -4.500427712926581 0.992998338624350
1.499987272955215 -5.500062427844162 0.994631530298214
1.503999943142121 -3.503568762161956 1.039721139080225
2.501800172568394 -1.501614113010161 1.016033931172023
2.499402159975561 -2.499545709363898 0.996675027415447
2.498914813393121 0.500823015100894 0.996244059499761
2.499667982680287 -0.499787754203721 1.000986889321565
3.499534057837561 -2.499652429296832 0.995907993158464
3.498839866014943 2.500869162629562 1.004389409484470
3.495945526707805 1.503270545622371 1.037172798839694
3.496357129362263 -5.496519849785422 1.065043870438257
3.499188731484749 -1.499355226043594 1.221820580298263
4.500335314193126 3.499667882300802 1.002767858957445
4.498541949305637 1.501168762169669 1.005377787200276
4.500664021933726 -0.500655117807212 0.999536334799204
4.501447365131013 -2.501412284465023 1.000027098051085
4.501788580100810 -4.501819134228401 0.997861159461767
5.496541292813318 2.502867356784790 1.026666839560738
5.493227183299122 1.505805043504704 1.055032446043159
5.498915920627022 -0.499082413301786 1.002415791273594
5.500509120626522 -2.500551579869431 1.003456576346709
5.500030890581378 -4.500103075392689 0.999163714123513
5.501493637000451 -5.501615313625384 1.101007186127191
5.499773285629526 3.500124840167285 1.230688239319664
5.499593783656513 0.500295974318309 1.173410988583817
5.500706951589841 -1.500724178891898 1.279870333243334
5.499823026535962 -3.499892035260605 1.258271087495998
6.499168560675431 3.500647514519279 1.013586764221258
6.501197222263008 2.498895725853782 1.002845473693927
6.498290925530818 1.501455769701869 1.007596489744684
6.498395658503478 0.501395484894822 1.001612262284402
6.501814184733659 -0.501755102230986 1.001006912252253
6.499986929756138 -1.500053026977514 0.998757383867468
6.499535883227178 -2.499617063904260 0.999446153125847
6.501303876905121 -3.501375779110644 1.003099911402000
7.499346775256642 2.500523692154892 1.008366293846149
7.499393743006587 3.500467196930007 1.171241356302479
7.497330932795160 1.502370444020567 1.019352088282065
7.499203995966648 0.500676670094937 1.108832990919515
7.501402178740795 -4.501551987817302 1.000055609220815
7.498953765989647 -5.498943554407965 1.046688045172991
8.500013093404199 3.499929296505972 1.007339535768470
8.500377721774971 2.499590826367254 1.009501308021687
8.500672749225311 -0.500724930567763 1.007012286483145
8.503186612232117 -1.503254949603632 1.011557842671996
8.501645567868161 -4.501845033633969 1.001481425143471
8.501023169699536 -5.501208832293347 1.000149658894412
9.500005919477410 3.499936307207927 1.009500924854315
9.500918650157628 1.499060070767875 1.013001132429126
9.501446880726887 -0.501512771678959 1.002308115816374
9.500883096486724 -2.500997538796526 1.000840468856700
9.502839515532386 -4.503210223729120 1.004927858558409
