ply
format ascii 1.0
element vertex 857
property double x
property double y
property double z
end_header
-4.506314138764069 -1.480497284704831 0.051271877783340
-4.504883836432866 -1.485017383146625 0.059947664821165
-4.503437371174359 -1.489525855512469 0.068721491351857
-4.501974844401193 -1.494022628150229 0.077592742236578
-4.500496357843771 -1.498507628409917 0.086560800409069
-4.499002013539238 -1.502980784643524 0.095625046942466
-4.497491913820513 -1.507442026204703 0.104784861115825
-4.495966161305367 -1.511891283448340 0.114039620480363
-4.510212094449161 -2.481253660291090 0.027628042022904
-4.508141064799585 -2.485115831022978 0.040190289735687
-4.506060782301501 -2.488963766634084 0.052808662465815
-4.503971345266874 -2.492797459986928 0.065482563882252
-4.501872851687715 -2.496616904635961 0.078211399594711
-4.499765399231738 -2.500422094821619 0.090994577179972
-4.497649085238115 -2.504213025464363 0.103831506207698
-4.495524006713291 -2.507989692158717 0.116721598265735
-4.513067682413408 -3.482934700455792 0.010306897740951
-4.510675473292115 -3.486098844130409 0.024817324266528
-4.508279597251449 -3.489249590369349 0.039349993230545
-4.505880121686168 -3.492386966915616 0.053904495836530
-4.503477113549333 -3.495511001765838 0.068480425967200
-4.501070639352924 -3.498621723165863 0.083077380180720
-4.498660765168495 -3.501719159606397 0.097694957706775
-4.496247556627849 -3.504803339818662 0.112332760442435
-4.514915798212652 -4.484883765529169 -0.000903221088954
-4.512430171908273 -4.487430943489397 0.014173846186931
-4.509944359381485 -4.489966950679769 0.029252043032372
-4.507458398526079 -4.492491823508227 0.044331139594934
-4.504972326906731 -4.495005598390017 0.059410908018506
-4.502486181760779 -4.497508311745839 0.074491122432519
-4.499999999999998 -4.499999999999998 0.089571558941153
-4.497513818212384 -4.502480699578600 0.104651995612551
-4.492525080861794 4.507425579737951 0.104784861115824
-4.495016659971745 4.504961362784466 0.089638212641771
-4.497508311745839 4.502486181760779 0.074491122432519
-4.499999999999999 4.499999999999999 0.059343810455971
-4.502491688227087 4.497502780833449 0.044196498644000
-4.504983339595098 4.494994487592463 0.029049410903370
-4.507474916945366 4.492475083610181 0.013902773126680
-4.509966382790759 4.489944532223399 -0.001243186796707
-4.512457699313887 4.487402796774420 -0.016388238969724
-4.514948828365303 4.484849840612940 -0.031532151476685
-4.491931506953241 3.510276233034162 0.108393277681966
-4.494355860219058 3.507208851799418 0.093655304262791
-4.496776980785318 3.504128207589867 0.078936982864140
-4.499194803370142 3.501034271062248 0.064238710343445
-4.501609262249293 3.497927013108256 0.049560886247281
-4.504020291255434 3.494806404858858 0.034903912815894
-4.506427823777414 3.491672417688657 0.020268194987543
-4.508831792759585 3.488525023220279 0.005654140402629
-4.511232130701156 3.485364193328794 -0.008937840592354
-4.513628769655576 3.482189900146183 -0.023507334941071
-4.492183733678302 2.513866578562852 0.106859957096242
-4.494327050569811 2.510103892180392 0.093830442041103
-4.496461715528467 2.506326873025333 0.080853523263174
-4.498587631432640 2.502535524485734 0.067929791178049
-4.500704700818633 2.498729850620305 0.055059838280815
-4.502812825884761 2.494909856164447 0.042244259121223
-4.504911908495525 2.491075546536297 0.029483650278324
-4.507001850185866 2.487226927842750 0.016778610334610
-4.509082552165507 2.483364006885488 0.004129739849619
-4.511153915323381 2.479486791166977 -0.008462358666978
-4.493893884003556 1.517844086552712 0.096463720544514
-4.495443892100107 1.513401190337467 0.087041010393904
-4.496978316531524 1.508946164498466 0.077713035464330
-4.498497053629888 1.504479077796075 0.068480425967197
-4.499999999999999 1.500000000000000 0.059343810455971
-4.501487052530364 1.495509001889899 0.050303815759463
-4.502958108404214 1.491006155255871 0.041361066914808
-4.504413065110578 1.486491532898804 0.032516187100143
-4.505851820455407 1.481965208630602 0.023769797566997
-4.507274272572742 1.477427257274272 0.015122517572400
-4.502320047590718 -0.476977989292088 0.045239925430068
-4.501862126209562 -0.481919355191018 0.048023691822005
-4.501382766843675 -0.486856437264839 0.050937782640481
-4.500882012759177 -0.491789097716102 0.053981934864888
-4.500359908386955 -0.496717199258371 0.057155878393805
-4.499816499315656 -0.501640605128329 0.060459336087640
-4.499251832284525 -0.506559179097792 0.063892023812171
-4.498665955176093 -0.511472785485592 0.067453650482974
-4.498058917008724 -0.516381289169362 0.071143918110741
-4.497430767929020 -0.521284555597191 0.074962521847449
-4.507274272572742 -1.477427257274272 0.015122517572400
-4.505851820455407 -1.481965208630602 0.023769797566997
-4.504413065110578 -1.486491532898804 0.032516187100143
-4.502958108404214 -1.491006155255871 0.041361066914808
-4.501487052530364 -1.495509001889899 0.050303815759463
-4.499999999999999 -1.500000000000000 0.059343810455971
-4.498497053629888 -1.504479077796075 0.068480425967197
-4.496978316531524 -1.508946164498466 0.077713035464330
-4.495443892100107 -1.513401190337467 0.087041010393904
-4.493893884003556 -1.517844086552712 0.096463720544514
-4.511153915323381 -2.479486791166977 -0.008462358666978
-4.509082552165507 -2.483364006885488 0.004129739849619
-4.507001850185866 -2.487226927842750 0.016778610334610
-4.504911908495525 -2.491075546536297 0.029483650278324
-4.502812825884761 -2.494909856164447 0.042244259121223
-4.500704700818633 -2.498729850620305 0.055059838280815
-4.498587631432640 -2.502535524485734 0.067929791178049
-4.496461715528467 -2.506326873025333 0.080853523263174
-4.494327050569811 -2.510103892180392 0.093830442041103
-4.492183733678302 -2.513866578562852 0.106859957096242
-4.513628769655576 -3.482189900146183 -0.023507334941071
-4.511232130701156 -3.485364193328794 -0.008937840592354
-4.508831792759585 -3.488525023220279 0.005654140402629
-4.506427823777414 -3.491672417688657 0.020268194987543
-4.504020291255434 -3.494806404858858 0.034903912815894
-4.501609262249293 -3.497927013108256 0.049560886247281
-4.499194803370142 -3.501034271062248 0.064238710343445
-4.496776980785318 -3.504128207589867 0.078936982864140
-4.494355860219058 -3.507208851799418 0.093655304262791
-4.491931506953241 -3.510276233034162 0.108393277681966
-4.514948828365303 -4.484849840612940 -0.031532151476685
-4.512457699313887 -4.487402796774420 -0.016388238969724
-4.509966382790759 -4.489944532223399 -0.001243186796707
-4.507474916945366 -4.492475083610181 0.013902773126680
-4.504983339595098 -4.494994487592463 0.029049410903370
-4.502491688227087 -4.497502780833449 0.044196498644000
-4.499999999999999 -4.499999999999999 0.059343810455971
-4.497508311745839 -4.502486181760779 0.074491122432519
-4.495016659971745 -4.504961362784466 0.089638212641771
-4.492525080861794 -4.507425579737951 0.104784861115824
-4.490011489046334 4.509900603266502 0.089838169837379
-4.492508489094189 4.507441952950532 0.074624871731696
-4.495005598390017 4.504972326906731 0.059410908018506
-4.497502780833449 4.502491688227087 0.044196498644000
-4.499999999999998 4.499999999999998 0.028981865529126
-4.502497219139234 4.497497225312067 0.013767232580662
-4.504994401172969 4.494983327249892 -0.001447174297700
-4.507491508693435 4.492458268901913 -0.016661127194273
-4.509988503961471 4.489922013360260 -0.031874396178290
-4.512485348904701 4.487374523722629 -0.047086749288836
-4.490021544608445 3.512680660518743 0.089776905015161
-4.492453779590591 3.509616894750885 0.074958196510035
-4.494882818648161 3.506539830351780 0.060158959591751
-4.497308596411971 3.503449437600017 0.045379592530593
-4.499731047067145 3.500345687007846 0.030620496312257
-4.502150104352345 3.497228549325516 0.015882074642588
-4.504565701559018 3.494097995545656 0.001164733952125
-4.506977771530690 3.490953996907692 -0.013531116599555
-4.509386246662279 3.487796524902286 -0.028205065119687
-4.511791058899448 3.484625551275825 -0.042856696978353
-4.490969126383670 2.515985888267801 0.084003639596761
-4.493122047059923 2.512222949899424 0.070886689889914
-4.495266332091642 2.508445613436492 0.057822353972447
-4.497401883904169 2.504653881913204 0.044811226330694
-4.499528604575451 2.500847759036960 0.031853903567515
-4.501646395840127 2.497027249194477 0.018950984377422
-4.503755159093698 2.493192357457901 0.006103069521174
-4.505854795396781 2.489343089590907 -0.006689238200149
-4.507945205479451 2.485479452054794 -0.019425333971593
-4.510026289745668 2.481601452014565 -0.032104610991316
-4.493358735211323 1.519364982442063 0.069444636491311
-4.494917499034268 1.514916395342420 0.059947664821163
-4.496460645472166 1.510455601408447 0.050545844104082
-4.497988070074477 1.505982669514503 0.041239810718591
-4.499499668662081 1.501497669553037 0.032030199389553
-4.500995337338353 1.497000672435258 0.022917643120673
-4.502474972500305 1.492491750091665 0.013902773126679
-4.503938470849751 1.487970975472449 0.004986218765198
-4.505385729404555 1.483438422547763 -0.003831392531662
-4.506816645509891 1.478894166307856 -0.012549435326020
-4.502274772522746 -0.477477252274772 0.015122517572401
-4.501813638856723 -0.482429154732159 0.017932034510055
-4.501330976357960 -0.487376740015545 0.020872718666002
-4.500826828703984 -0.492319869460917 0.023944303929207
-4.500301240746735 -0.497258404921118 0.027146517033392
-4.499754258505452 -0.502192208778081 0.030479077600339
-4.499185929159420 -0.507121143954962 0.033941698184116
-4.498596301040559 -0.512045073928145 0.037534084316202
-4.497985423625871 -0.516963862739144 0.041255934551507
-4.497353347529749 -0.521877375006374 0.045106940515263
-4.506816645509891 -1.478894166307856 -0.012549435326020
-4.505385729404555 -1.483438422547763 -0.003831392531662
-4.503938470849751 -1.487970975472449 0.004986218765198
-4.502474972500305 -1.492491750091665 0.013902773126679
-4.500995337338353 -1.497000672435258 0.022917643120673
-4.499499668662081 -1.501497669553037 0.032030199389553
-4.497988070074477 -1.505982669514503 0.041239810718591
-4.496460645472166 -1.510455601408447 0.050545844104082
-4.494917499034268 -1.514916395342420 0.059947664821163
-4.493358735211323 -1.519364982442063 0.069444636491311
-4.510026289745668 -2.481601452014565 -0.032104610991316
-4.507945205479451 -2.485479452054794 -0.019425333971593
-4.505854795396781 -2.489343089590907 -0.006689238200149
-4.503755159093698 -2.493192357457901 0.006103069521174
-4.501646395840127 -2.497027249194477 0.018950984377422
-4.499528604575451 -2.500847759036960 0.031853903567515
-4.497401883904169 -2.504653881913204 0.044811226330694
-4.495266332091642 -2.508445613436492 0.057822353972447
-4.493122047059923 -2.512222949899424 0.070886689889914
-4.490969126383670 -2.515985888267801 0.084003639596761
-4.511791058899448 -3.484625551275825 -0.042856696978353
-4.509386246662279 -3.487796524902286 -0.028205065119687
-4.506977771530690 -3.490953996907692 -0.013531116599555
-4.504565701559018 -3.494097995545656 0.001164733952125
-4.502150104352345 -3.497228549325516 0.015882074642588
-4.499731047067145 -3.500345687007846 0.030620496312257
-4.497308596411971 -3.503449437600017 0.045379592530593
-4.494882818648161 -3.506539830351780 0.060158959591751
-4.492453779590591 -3.509616894750885 0.074958196510035
-4.490021544608445 -3.512680660518743 0.089776905015161
-4.512485348904701 -4.487374523722629 -0.047086749288836
-4.509988503961471 -4.489922013360260 -0.031874396178290
-4.507491508693435 -4.492458268901913 -0.016661127194273
-4.504994401172969 -4.494983327249892 -0.001447174297700
-4.502497219139234 -4.497497225312067 0.013767232580662
-4.499999999999998 -4.499999999999998 0.028981865529126
-4.497502780833449 -4.502491688227087 0.044196498644000
-4.495005598390017 -4.504972326906731 0.059410908018506
-4.492508489094189 -4.507441952950532 0.074624871731696
-4.490011489046334 -4.509900603266502 0.089838169837379
-4.487486861280821 4.512375480427436 0.074892362474393
-4.489989269399391 4.509922433087040 0.059612196756408
-4.492491823508227 4.507458398526079 0.044331139594934
-4.494994487592463 4.504983339595098 0.029049410903370
-4.497497225312067 4.502497219139234 0.013767232580662
-4.499999999999999 4.499999999999999 -0.001515171477483
-4.502502774660374 4.497491645017080 -0.016797575367358
-4.505005511966622 4.494972117030174 -0.032079751166035
-4.507508174259645 4.492441378880826 -0.047361468920124
-4.510010723545984 4.489899393414318 -0.062642496634554
-4.488101141063802 3.515087551739972 0.071141456772201
-4.490541263713159 3.512027445434042 0.056241617622190
-4.492978227525347 3.508954004900300 0.041361066914810
-4.495411967045706 3.505867200036854 0.026500204328281
-4.497842416370549 3.502767000974144 0.011659432282686
-4.500269509146345 3.499653378079306 -0.003160844055077
-4.502693178568943 3.496526301960571 -0.017960216766536
-4.505113357382827 3.493385743471708 -0.032738275177094
-4.507529977880398 3.490231673716480 -0.047494605851662
-4.509942971901293 3.487064064053163 -0.062228792590491
-4.489746383804841 2.518110021531328 0.061095301014142
-4.491908941563012 2.514346866932644 0.047890324306174
-4.494062880328358 2.510569248682782 0.034737976758777
-4.496208102072162 2.506777169457505 0.021638856953387
-4.498344508412936 2.502970632608322 0.008593565625517
-4.500472000620505 2.499149642168667 -0.004397294360155
-4.502590479620169 2.495314202860094 -0.017333118035243
-4.504699845996964 2.491464320098439 -0.030213298353623
-4.506799999999998 2.487599999999999 -0.043037226217948
-4.508890841546885 2.483721249387676 -0.055804290506691
-4.492819376727653 1.520891198452553 0.042331039196782
-4.494386946645242 1.516436921713114 0.032759168030951
-4.495938865500994 1.511970360375754 0.023282865136645
-4.497475028055242 1.507491583426851 0.013902773126680
-4.498995329338385 1.503000660879704 0.004619532964823
-4.500499664662065 1.498497663775259 -0.004566216102511
-4.501987929630413 1.493982664182684 -0.013653836614875
-4.503460020151335 1.489455735199826 -0.022642692966731
-4.504915832447848 1.484916950953525 -0.031532151476684
-4.506355263069475 1.480366386599796 -0.040321580457019
-4.502229075472575 -0.477978693957736 -0.015126317623503
-4.501764705882352 -0.482941176470588 -0.012290791219818
-4.501278716046722 -0.487899308147318 -0.009323247608303
-4.500771150059317 -0.492852949450227 -0.006223956032801
-4.500242053197913 -0.497801961364398 -0.002993192967760
-4.499691471917223 -0.502746205410055 0.000368757925752
-4.499119453841549 -0.507685543654816 0.003861605844965
-4.498526047757272 -0.512619838725822 0.007485052891242
-4.497911303605195 -0.517548953821753 0.011238794116813
-4.497275272472751 -0.522472752724727 0.015122517572402
-4.506355263069475 -1.480366386599796 -0.040321580457019
-4.504915832447848 -1.484916950953525 -0.031532151476684
-4.503460020151335 -1.489455735199826 -0.022642692966731
-4.501987929630413 -1.493982664182684 -0.013653836614875
-4.500499664662065 -1.498497663775259 -0.004566216102511
-4.498995329338385 -1.503000660879704 0.004619532964823
-4.497475028055242 -1.507491583426851 0.013902773126680
-4.495938865500994 -1.511970360375754 0.023282865136645
-4.494386946645242 -1.516436921713114 0.032759168030951
-4.492819376727653 -1.520891198452553 0.042331039196782
-4.508890841546885 -2.483721249387676 -0.055804290506691
-4.506799999999998 -2.487599999999999 -0.043037226217948
-4.504699845996964 -2.491464320098439 -0.030213298353623
-4.502590479620169 -2.495314202860094 -0.017333118035243
-4.500472000620505 -2.499149642168667 -0.004397294360155
-4.498344508412936 -2.502970632608322 0.008593565625517
-4.496208102072162 -2.506777169457505 0.021638856953387
-4.494062880328358 -2.510569248682782 0.034737976758777
-4.491908941563012 -2.514346866932644 0.047890324306174
-4.489746383804841 -2.518110021531328 0.061095301014142
-4.509942971901293 -3.487064064053163 -0.062228792590491
-4.507529977880398 -3.490231673716480 -0.047494605851662
-4.505113357382827 -3.493385743471708 -0.032738275177094
-4.502693178568943 -3.496526301960571 -0.017960216766536
-4.500269509146345 -3.499653378079306 -0.003160844055077
-4.497842416370549 -3.502767000974144 0.011659432282686
-4.495411967045706 -3.505867200036854 0.026500204328281
-4.492978227525347 -3.508954004900300 0.041361066914810
-4.490541263713159 -3.512027445434042 0.056241617622190
-4.488101141063802 -3.515087551739972 0.071141456772201
-4.510010723545984 -4.489899393414318 -0.062642496634554
-4.507508174259645 -4.492441378880826 -0.047361468920124
-4.505005511966622 -4.494972117030174 -0.032079751166035
-4.502502774660374 -4.497491645017080 -0.016797575367358
-4.499999999999999 -4.499999999999999 -0.001515171477483
-4.497497225312067 -4.502497219139234 0.013767232580662
-4.494994487592463 -4.504983339595098 0.029049410903370
-4.492491823508227 -4.507458398526079 0.044331139594934
-4.489989269399391 -4.509922433087040 0.059612196756408
-4.487486861280821 -4.512375480427436 0.074892362474393
-4.484951161635670 4.514850173831465 0.059947664821164
-4.487458964712416 4.512402765879779 0.044600413553662
-4.489966950679769 4.509944359381485 0.029252043032372
-4.492475083610181 4.507474916945366 0.013902773126680
-4.494983327249892 4.504994401172969 -0.001447174297700
-4.497491645017080 4.502502774660374 -0.016797575367358
-4.499999999999998 4.499999999999998 -0.032148204189806
-4.502508354955113 4.497486039782415 -0.047498832842103
-4.505016672305246 4.494960856598199 -0.062849231359464
-4.507524914137716 4.492424413039805 -0.078199167723891
-4.486170245316646 3.517496882864551 0.052487117483323
-4.488618261377520 3.514440480260767 0.037505750747837
-4.491063156002377 3.511370707894845 0.022543486574004
-4.493504863652951 3.508287535282078 0.007600726042843
-4.495943318338592 3.505190932168733 -0.007322126996119
-4.498378453615421 3.502080868536432 -0.022224665919684
-4.500810202585518 3.498957314606584 -0.037106481326011
-4.503238497896139 3.495820240844836 -0.051967161029844
-4.505663271738976 3.492669617965564 -0.066806290057934
-4.508084455849431 3.489505416936407 -0.081623450644658
-4.488515450930251 2.520238979401892 0.038134930040982
-4.490687679083092 2.516475644699140 0.024841329924956
-4.492851305262004 2.512697780554417 0.011600372162128
-4.495006230983208 2.508905389280439 -0.001587340546567
-4.497152357404722 2.505098473868189 -0.014721203308044
-4.499289585330433 2.501277037993185 -0.027800609062013
-4.501417815214268 2.497441086021730 -0.040824948606482
-4.503536947164438 2.493590623017165 -0.053793610623776
-4.505646880947788 2.489725654746109 -0.066705981707103
-4.507747515994223 2.485846187684686 -0.079561446387672
-4.492275772422756 1.522422757724227 0.015122517572402
-4.493852199123776 1.517962792788182 0.005475102705710
-4.495412941131907 1.513490464933368 -0.004076324989968
-4.496957892411797 1.509005843256159 -0.013531116599555
-4.498486947196745 1.504508997888763 -0.022888624852084
-4.499999999999998 1.500000000000000 -0.032148204189806
-4.501496945626094 1.495478921795931 -0.041309210837621
-4.502977679182264 1.490945836520365 -0.050371002872835
-4.504442096089876 1.486400818455221 -0.059332940295232
-4.505890092095940 1.481843942920756 -0.068194385097445
-4.502182952182951 -0.478482328482328 -0.045507433216740
-4.501715322812685 -0.483455434806666 -0.042645635369822
-4.501225981215139 -0.488424156315985 -0.039650963051724
-4.500714971904797 -0.493388352591711 -0.036523688682144
-4.500182340590118 -0.498347883744060 -0.033264091987692
-4.499628134166246 -0.503302610424516 -0.029872459957207
-4.499052400707539 -0.508252393838212 -0.026349086796129
-4.498455189459976 -0.513197095756185 -0.022694273879954
-4.497836550833395 -0.518136578527506 -0.018908329706758
-4.497196536393585 -0.523070705091305 -0.014991569848831
-4.505890092095940 -1.481843942920756 -0.068194385097445
-4.504442096089876 -1.486400818455221 -0.059332940295232
-4.502977679182264 -1.490945836520365 -0.050371002872835
-4.501496945626094 -1.495478921795931 -0.041309210837621
-4.499999999999998 -1.500000000000000 -0.032148204189806
-4.498486947196745 -1.504508997888763 -0.022888624852084
-4.496957892411797 -1.509005843256159 -0.013531116599555
-4.495412941131907 -1.513490464933368 -0.004076324989968
-4.493852199123776 -1.517962792788182 0.005475102705710
-4.492275772422756 -1.522422757724227 0.015122517572402
-4.507747515994223 -2.485846187684686 -0.079561446387672
-4.505646880947788 -2.489725654746109 -0.066705981707103
-4.503536947164438 -2.493590623017165 -0.053793610623776
-4.501417815214268 -2.497441086021730 -0.040824948606482
-4.499289585330433 -2.501277037993185 -0.027800609062013
-4.497152357404722 -2.505098473868189 -0.014721203308044
-4.495006230983208 -2.508905389280439 -0.001587340546567
-4.492851305262004 -2.512697780554417 0.011600372162128
-4.490687679083092 -2.516475644699140 0.024841329924956
-4.488515450930251 -2.520238979401892 0.038134930040982
-4.508084455849431 -3.489505416936407 -0.081623450644658
-4.505663271738976 -3.492669617965564 -0.066806290057934
-4.503238497896139 -3.495820240844836 -0.051967161029844
-4.500810202585518 -3.498957314606584 -0.037106481326011
-4.498378453615421 -3.502080868536432 -0.022224665919684
-4.495943318338592 -3.505190932168733 -0.007322126996119
-4.493504863652951 -3.508287535282078 0.007600726042843
-4.491063156002377 -3.511370707894845 0.022543486574004
-4.488618261377520 -3.514440480260767 0.037505750747837
-4.486170245316646 -3.517496882864551 0.052487117483323
-4.507524914137716 -4.492424413039805 -0.078199167723891
-4.505016672305246 -4.494960856598199 -0.062849231359464
-4.502508354955113 -4.497486039782415 -0.047498832842103
-4.499999999999998 -4.499999999999998 -0.032148204189806
-4.497491645017080 -4.502502774660374 -0.016797575367358
-4.494983327249892 -4.504994401172969 -0.001447174297700
-4.492475083610181 -4.507474916945366 0.013902773126680
-4.489966950679769 -4.509944359381485 0.029252043032372
-4.487458964712416 -4.512402765879779 0.044600413553662
-4.484951161635670 -4.514850173831465 0.059947664821164
-4.484917538865560 4.514882913688338 0.029589749935529
-4.487430943489397 4.512430171908273 0.014173846186931
-4.489944532223399 4.509966382790759 -0.001243186796707
-4.492458268901913 4.507491508693435 -0.016661127194273
-4.494972117030174 4.505005511966622 -0.032079751166035
-4.497486039782415 4.502508354955113 -0.047498832842103
-4.499999999999999 4.499999999999999 -0.062918144310903
-4.502513960189529 4.497480409440502 -0.078337455607639
-4.486684721195133 3.516855975290458 0.018750781772360
-4.489137552482569 3.513789915642694 0.003706403051948
-4.491587234430225 3.510710419893238 -0.011318659272511
-4.494033700962375 3.507617457401816 -0.026323999927211
-4.496476885546661 3.504510997762142 -0.041309210837623
-4.498916721193253 3.501391010806366 -0.056273881123310
-4.501353140454031 3.498257466609555 -0.071217597092938
-4.503786075421806 3.495110335494203 -0.086139942239476
-4.489458204246583 2.518609284416779 0.001739693559981
-4.491631551536384 2.514831210643435 -0.011590477123281
-4.493796215302352 2.511038543348696 -0.024867387632529
-4.495952096240966 2.507231285158351 -0.038090428892147
-4.498099094689083 2.503409439385309 -0.051258989620746
-4.500237110628089 2.499573010035934 -0.064372456356699
-4.502366043688159 2.495722001816356 -0.077430213484213
-4.504485793152591 2.491856420138802 -0.090431643259947
-4.493313220310206 1.519494031994674 -0.021904950053097
-4.494882836530395 1.515015938705888 -0.031532151476685
-4.496436627637387 1.510525472820255 -0.041062289968376
-4.497974487060717 1.506022704586900 -0.050494711880900
-4.499496308508511 1.501507705300609 -0.059828765275738
-4.501001985978943 1.496980547302510 -0.069063799993375
-4.502491413771746 1.492441303980631 -0.078199167723893
-4.503964486499773 1.487890049770316 -0.087234222077880
-4.501665485121171 -0.483971944263988 -0.073133355216144
-4.501172767113141 -0.488951299302512 -0.070111281764473
-4.500658289262295 -0.493926093920048 -0.066955744866759
-4.500122097712701 -0.498896187344757 -0.063667027546455
-4.499564239804936 -0.503861439352289 -0.060245420165795
-4.498984764068532 -0.508821710278278 -0.056691220379447
-4.498383720214272 -0.513776861030725 -0.053004733087233
-4.497761159126322 -0.518726753102253 -0.049186270385911
-4.503964486499773 -1.487890049770316 -0.087234222077880
-4.502491413771746 -1.492441303980631 -0.078199167723893
-4.501001985978943 -1.496980547302510 -0.069063799993375
-4.499496308508511 -1.501507705300609 -0.059828765275738
-4.497974487060717 -1.506022704586900 -0.050494711880900
-4.496436627637387 -1.510525472820255 -0.041062289968376
-4.494882836530395 -1.515015938705888 -0.031532151476685
-4.493313220310206 -1.519494031994674 -0.021904950053097
-4.504485793152591 -2.491856420138802 -0.090431643259947
-4.502366043688159 -2.495722001816356 -0.077430213484213
-4.500237110628089 -2.499573010035934 -0.064372456356699
-4.498099094689083 -2.503409439385309 -0.051258989620746
-4.495952096240966 -2.507231285158351 -0.038090428892147
-4.493796215302352 -2.511038543348696 -0.024867387632529
-4.491631551536384 -2.514831210643435 -0.011590477123281
-4.489458204246583 -2.518609284416779 0.001739693559981
-4.503786075421806 -3.495110335494203 -0.086139942239476
-4.501353140454031 -3.498257466609555 -0.071217597092938
-4.498916721193253 -3.501391010806366 -0.056273881123310
-4.496476885546661 -3.504510997762142 -0.041309210837623
-4.494033700962375 -3.507617457401816 -0.026323999927211
-4.491587234430225 -3.510710419893238 -0.011318659272511
-4.489137552482569 -3.513789915642694 0.003706403051948
-4.486684721195133 -3.516855975290458 0.018750781772360
-4.502513960189529 -4.497480409440502 -0.078337455607639
-4.499999999999999 -4.499999999999999 -0.062918144310903
-4.497486039782415 -4.502508354955113 -0.047498832842103
-4.494972117030174 -4.505005511966622 -0.032079751166035
-4.492458268901913 -4.507491508693435 -0.016661127194273
-4.489944532223399 -4.509966382790759 -0.001243186796707
-4.487430943489397 -4.512430171908273 0.014173846186931
-4.484917538865560 -4.514882913688338 0.029589749935529
-4.482364955700209 4.517362838544333 0.014580435699036
-4.484883765529169 4.514915798212652 -0.000903221088954
-4.487402796774420 4.512457699313887 -0.016388238969724
-4.489922013360260 4.509988503961471 -0.031874396178290
-4.492441378880826 4.507508174259645 -0.047361468920124
-4.494960856598199 4.505016672305246 -0.062849231359464
-4.497480409440502 4.502513960189529 -0.078337455607639
-4.499999999999998 4.499999999999998 -0.093825911711374
-4.484740591598844 3.519273906226633 -0.000023100655629
-4.487201365187712 3.516211604095562 -0.015149996400160
-4.489659027389601 3.513135830072665 -0.030257765790832
-4.492113512045621 3.510046553128758 -0.045346002134933
-4.494564752536836 3.506943742467244 -0.060414295911794
-4.497012681783397 3.503827367528586 -0.075462234767378
-4.499457232243683 3.500697397994805 -0.090489403509068
-4.501898335913493 3.497553803794010 -0.105495384100644
-4.488220461300068 2.520747787098695 -0.021414595758265
-4.490403563413442 2.516969540340188 -0.034834586210894
-4.492577999310775 2.513176633430370 -0.048201303600475
-4.494743669225999 2.509369068625113 -0.061514134643876
-4.496900473027854 2.505546848869988 -0.074772463813078
-4.499048310224057 2.501709977806671 -0.087975673360748
-4.501187079965542 2.497858459779332 -0.101123143346351
-4.503316681050803 2.493992299841037 -0.114214251662828
-4.492769973690643 1.521030662847735 -0.049381410719233
-4.494348515509715 1.516546805409253 -0.059085041168426
-4.495911197875081 1.512050496031523 -0.068691180201143
-4.497457913405775 1.507541805078543 -0.078199167723892
-4.498988554998025 1.503020803969104 -0.087608345347124
-4.500503015836811 1.498487565177529 -0.096918056456320
-4.502001189407488 1.493942162234276 -0.106127646283425
-4.503482969507458 1.489384669726411 -0.115236461978608
-4.501615188227733 -0.484490719490682 -0.103754815385920
-4.501119068934645 -0.489480752014324 -0.100705065153984
-4.500601097095150 -0.494466188598241 -0.097520982697116
-4.500061319293898 -0.499446887581295 -0.094202854381003
-4.499499783321983 -0.504422707856126 -0.090750973987618
-4.498916538169288 -0.509393508881788 -0.087165642668144
-4.498311634016677 -0.514359150696250 -0.083447168894943
-4.497685122228018 -0.519319493928777 -0.079595868412588
-4.503482969507458 -1.489384669726411 -0.115236461978608
-4.502001189407488 -1.493942162234276 -0.106127646283425
-4.500503015836811 -1.498487565177529 -0.096918056456320
-4.498988554998025 -1.503020803969104 -0.087608345347124
-4.497457913405775 -1.507541805078543 -0.078199167723892
-4.495911197875081 -1.512050496031523 -0.068691180201143
-4.494348515509715 -1.516546805409253 -0.059085041168426
-4.492769973690643 -1.521030662847735 -0.049381410719233
-4.503316681050803 -2.493992299841037 -0.114214251662828
-4.501187079965542 -2.497858459779332 -0.101123143346351
-4.499048310224057 -2.501709977806671 -0.087975673360748
-4.496900473027854 -2.505546848869988 -0.074772463813078
-4.494743669225999 -2.509369068625113 -0.061514134643876
-4.492577999310775 -2.513176633430370 -0.048201303600475
-4.490403563413442 -2.516969540340188 -0.034834586210894
-4.488220461300068 -2.520747787098695 -0.021414595758265
-4.501898335913493 -3.497553803794010 -0.105495384100644
-4.499457232243683 -3.500697397994805 -0.090489403509068
-4.497012681783397 -3.503827367528586 -0.075462234767378
-4.494564752536836 -3.506943742467244 -0.060414295911794
-4.492113512045621 -3.510046553128758 -0.045346002134933
-4.489659027389601 -3.513135830072665 -0.030257765790832
-4.487201365187712 -3.516211604095562 -0.015149996400160
-4.484740591598844 -3.519273906226633 -0.000023100655629
-4.499999999999998 -4.499999999999998 -0.093825911711374
-4.497480409440502 -4.502513960189529 -0.078337455607639
-4.494960856598199 -4.505016672305246 -0.062849231359464
-4.492441378880826 -4.507508174259645 -0.047361468920124
-4.489922013360260 -4.509988503961471 -0.031874396178290
-4.487402796774420 -4.512457699313887 -0.016388238969724
-4.484883765529169 -4.514915798212652 -0.000903221088954
-4.482364955700209 -4.517362838544333 0.014580435699036
-4.484849840612940 4.514948828365303 -0.031532151476685
-4.487374523722629 4.512485348904701 -0.047086749288836
-4.489899393414318 4.510010723545984 -0.062642496634554
-4.492424413039805 4.507524914137716 -0.078199167723891
-4.487720190359368 3.515563741664013 -0.049216404884393
-4.490182699205310 3.512478195446602 -0.064387946437662
-4.492642001993009 3.509379079004617 -0.079539735434139
-4.495098031554516 3.506266361384397 -0.094671358051403
-4.491351526903493 2.515319661091423 -0.071589105540439
-4.493527020275972 2.511511826215783 -0.084992341899904
-4.495693664288001 2.507689268776333 -0.098341057261396
-4.497851357972503 2.503851992045269 -0.111634629565759
-4.495381566913930 1.513580936896656 -0.096418222227857
-4.496937190355483 1.509066323565657 -0.106002433762231
-4.498476703929208 1.504539320398242 -0.115487392240281
-4.499999999999999 1.500000000000000 -0.124872434521051
-4.500543390307359 -0.495008651918983 -0.128220267622792
-4.499999999999999 -0.500000000000000 -0.124872434521051
-4.499434759141479 -0.504986431732087 -0.121389979955754
-4.498847717187285 -0.509967805690562 -0.117773208622628
-4.499999999999999 -1.500000000000000 -0.124872434521051
-4.498476703929208 -1.504539320398242 -0.115487392240281
-4.496937190355483 -1.509066323565657 -0.106002433762231
-4.495381566913930 -1.513580936896656 -0.096418222227857
-4.497851357972503 -2.503851992045269 -0.111634629565759
-4.495693664288001 -2.507689268776333 -0.098341057261396
-4.493527020275972 -2.511511826215783 -0.084992341899904
-4.491351526903493 -2.515319661091423 -0.071589105540439
-4.495098031554516 -3.506266361384397 -0.094671358051403
-4.492642001993009 -3.509379079004617 -0.079539735434139
-4.490182699205310 -3.512478195446602 -0.064387946437662
-4.487720190359368 -3.515563741664013 -0.049216404884393
-4.492424413039805 -4.507524914137716 -0.078199167723891
-4.489899393414318 -4.510010723545984 -0.062642496634554
-4.487374523722629 -4.512485348904701 -0.047086749288836
-4.484849840612940 -4.514948828365303 -0.031532151476685
-3.498599029001807 0.509442316727651 2.158552927587734
-3.499224228574033 0.505314995967983 2.154412990348565
-3.499830339805132 0.501181918500375 2.150399452003083
-3.500417302726377 0.497043214015665 2.146512709651323
-3.500985058518186 0.492899012942812 2.142753152783913
-3.501533549520720 0.488749446436479 2.139121163211915
-3.502062719244326 0.484594646364439 2.135617114997680
-3.497855776680570 0.514186181481344 2.135484438659499
-3.498504415942596 0.510055674922538 2.131178901527545
-3.499133945059191 0.505919235008660 2.127000213702389
-3.499744302310589 0.501776991505393 2.122948784867442
-3.500335427124872 0.497629074937860 2.119025017086928
-3.500907260088875 0.493475616578260 2.115229304733508
-3.501459742958928 0.489316748433324 2.111562034416949
-3.501992818671454 0.485152603231598 2.108023584913829
-3.502506431353385 0.480983314410543 2.104614327098331
-3.497083619182666 0.518944993498422 2.112496434400405
-3.497755834829442 0.514811490125673 2.108023584913831
-3.498408920394276 0.510671875404238 2.103678024902896
-3.499042812391227 0.506526279150713 2.099460176796111
-3.499657448480539 0.502374831962647 2.095370455395416
-3.500252767479842 0.498217665206232 2.091409267801593
-3.500828709375224 0.494054911003819 2.087577013340680
-3.501385215332119 0.489886702221248 2.083874083491443
-3.501922227706054 0.485713172454996 2.080300861813909
-3.502439690053226 0.481534456019153 2.076857723878979
-3.502937547140911 0.477350687932215 2.073545037199160
-3.496978187575887 0.519582296260192 2.084949600189866
-3.497654966996365 0.515439697295924 2.080435440433996
-3.498312533034494 0.511290937500902 2.076049435102973
-3.498950821567408 0.507136147520846 2.071792011900184
-3.499569769627905 0.502975458791884 2.067663590820698
-3.500169315415806 0.498809003528128 2.063664584075436
-3.500749398309183 0.494636914709060 2.059795396016351
-3.501309958875406 0.490459326066732 2.056056423062682
-3.501850938882041 0.486276372072791 2.052448053628283
-3.502372281307584 0.482088187925306 2.048970668050059
-3.502873930352014 0.477894909535438 2.045624638517513
-3.496871785212338 0.520222553863541 2.057275045630367
-3.497553163415333 0.516070822688084 2.052719140257379
-3.498215244424451 0.511912880711580 2.048292261890071
-3.498857963472255 0.507748859415521 2.043994843583564
-3.499481256956532 0.503578891081397 2.039827310601904
-3.500085062451833 0.499403108778154 2.035790080340957
-3.500669318720844 0.495221646349448 2.031883562252348
-3.501233965725600 0.491034638400722 2.028108157768461
-3.501778944638542 0.486842220286088 2.024464260228556
-3.502304197853399 0.482644528095031 2.020952254805980
-3.502809668995900 0.478441698638930 2.017572518436538
-3.496764401869294 0.520865786370452 2.029471903560917
-3.497450414198424 0.516704886171921 2.024873811789566
-3.498117045007216 0.512537724708043 2.020405627317831
-3.498764228875900 0.508364434302789 2.016067788630706
-3.499391901559592 0.504185148089855 2.011860726338325
-3.499999999999999 0.500000000000000 2.007784863097572
-3.500588462336947 0.495809124748167 2.003840613534734
-3.501157227919768 0.491612657820432 2.000028384169244
-3.501706237318506 0.487410735460750 1.996348573338543
-3.502235432334957 0.483203494657522 1.992801571124064
-3.502744756013544 0.478991073129975 1.989387759278389
-3.496656027196474 0.521512014019525 2.001539299186394
-3.497346709334018 0.517341907792843 1.996898574722872
-3.498017925105988 0.513165489336642 1.992388645648481
-3.498669608432409 0.508982891824139 1.988009955957530
-3.499301694417955 0.504794249248148 1.983762941684655
-3.499914119363806 0.500599696408281 1.979648030825100
-3.500506820779357 0.496399368897951 1.975665643256073
-3.501079737393752 0.492193403091180 1.971816190659206
-3.501632809167266 0.487981936129212 1.968100076444133
-3.502165977302500 0.483765105906943 1.964517695673228
-3.502679184255409 0.479543051059154 1.961069434987518
-3.496546650714186 0.522161257227855 1.973476349996397
-3.497242038685003 0.517981907773774 1.968792540953864
-3.497917874922352 0.513796194620183 1.964240423269045
-3.498574092678083 0.509604251796378 1.959820446526346
-3.499210626398539 0.505406214161259 1.955533052264624
-3.499827411736591 0.501202217390406 1.951378673896135
-3.500424385563509 0.496992397962949 1.947357736626555
-3.501001485980672 0.492776893148240 1.943470657376129
-3.501558652331104 0.488555840992335 1.939717844701958
-3.502095825210839 0.484329380304272 1.936099698721450
-3.502612946480106 0.480097650642174 1.932616611036980
-3.497136391986922 0.518624906517055 1.940554814499879
-3.497816884534489 0.514429860759831 1.935960058606542
-3.498477672029721 0.510228534213525 1.931498353259723
-3.499118688252632 0.506021062610164 1.927170145583571
-3.499739868199887 0.501807582508471 1.922975874487328
-3.500341148096838 0.497588231280611 1.918915970583996
-3.500922465409401 0.493363147098724 1.914990856110153
-3.501483758855767 0.489132468921267 1.911200944846912
-3.502024968417923 0.484896336479156 1.907546642042078
-3.497029758846119 0.519270924606369 1.912184491414485
-3.497714943895369 0.515066508137029 1.907546642042079
-3.498380336782863 0.510855759248738 1.903042760953248
-3.499025870614184 0.506638814553746 1.898673300939872
-3.499651479721778 0.502415811501169 1.894438706489505
-3.500257099677171 0.498186888363594 1.890339413702672
-3.500842667303016 0.493952184223478 1.886375850211320
-3.501408120684971 0.489711838959349 1.882548435098432
-3.501953399183394 0.485465993231800 1.878857578818849
-3.498282077110003 0.511485947256255 1.874452746187231
-3.498932163998073 0.507259490130743 1.870041589335291
-3.499562237155214 0.503026924285736 1.865766235416680
-3.500172231491105 0.498788388901702 1.861627126101004
-3.500762083177219 0.494544023979018 1.857624694495966
-3.510276233034162 4.491931506953241 0.108393277681966
-3.512680660518743 4.490021544608445 0.089776905015161
-3.515087551739972 4.488101141063802 0.071141456772201
-3.517496882864551 4.486170245316646 0.052487117483323
-3.507404528082335 3.492532275376420 0.130627564186819
-3.509872425011215 3.490014908226886 0.111519776896116
-3.512340080824628 3.487483380107779 0.092413856451232
-3.514807433560278 3.484937632146000 0.073310282597635
-3.503993701120829 2.494370707565271 0.157036023674397
-3.506314997571919 2.491063207028958 0.139063296245208
-3.508629979166721 2.487738165873334 0.121139461834735
-3.510938521255451 2.484395550160733 0.103265485548738
-3.500764520849803 1.498211071674881 0.182038076645099
-3.502536736324378 1.494024763940251 0.168316629884019
-3.504292479757871 1.489821511209596 0.154722718537223
-3.506031579481798 1.485601380967692 0.141257671754576
-3.501420648714093 -0.489616083110391 0.176957981313877
-3.500772710065914 -0.494466147103703 0.181974671323068
-3.500098463194262 -0.499308807873936 0.187195053768612
-3.499398001129965 -0.504143856299558 0.192618408355740
-3.506031579481798 -1.485601380967692 0.141257671754576
-3.504292479757871 -1.489821511209596 0.154722718537223
-3.502536736324378 -1.494024763940251 0.168316629884019
-3.500764520849803 -1.498211071674881 0.182038076645099
-3.510938521255451 -2.484395550160733 0.103265485548738
-3.508629979166721 -2.487738165873334 0.121139461834735
-3.506314997571919 -2.491063207028958 0.139063296245208
-3.503993701120829 -2.494370707565271 0.157036023674397
-3.514807433560278 -3.484937632146000 0.073310282597635
-3.512340080824628 -3.487483380107779 0.092413856451232
-3.509872425011215 -3.490014908226886 0.111519776896116
-3.507404528082335 -3.492532275376420 0.130627564186819
-3.517496882864551 -4.486170245316646 0.052487117483323
-3.515087551739972 -4.488101141063802 0.071141456772201
-3.512680660518743 -4.490021544608445 0.089776905015161
-3.510276233034162 -4.491931506953241 0.108393277681966
-3.502400381701900 4.498128919665661 0.130990387295435
-3.504803339818662 4.496247556627849 0.112332760442435
-3.507208851799418 4.494355860219058 0.093655304262791
-3.509616894750885 4.492453779590591 0.074958196510035
-3.512027445434042 4.490541263713159 0.056241617622190
-3.514440480260767 4.488618261377520 0.037505750747837
-3.516855975290458 4.486684721195133 0.018750781772360
-3.519273906226633 4.484740591598844 -0.000023100655629
-3.499999999999999 3.499999999999999 0.149628009726893
-3.502475237592714 3.497517740456666 0.130409173137428
-3.504950415368116 3.495021417261365 0.111190800995965
-3.507425472887767 3.492510970996217 0.091973362573209
-3.509900349031311 3.489986342253022 0.072757332434558
-3.512374981991725 3.487447471638235 0.053543190477006
-3.514849309270566 3.484894299777997 0.034331421966022
-3.517323267673232 3.482326767323267 0.015122517572403
-3.497655562572499 2.503269264815073 0.167831256132798
-3.499999999999999 2.499999999999999 0.149628009726892
-3.502338422385097 2.496713191597884 0.131471466763658
-3.504670706532596 2.493408803356195 0.113362583784950
-3.506996728316751 2.490086799759630 0.095302324557796
-3.509316362682062 2.486747146043826 0.077291660068289
-3.511629483644212 2.483389808209173 0.059331568514215
-3.513935964291194 2.480014753034736 0.041423035296411
-3.496382751667233 1.508330275476436 0.177713921485652
-3.498199448786756 1.504173736746762 0.163608283636807
-3.499999999999999 1.500000000000000 0.149628009726893
-3.501784232365145 1.495809128630705 0.135774442552459
-3.503551972846839 1.491601187950784 0.122048925636326
-3.505303048338769 1.487376245200303 0.108452803052268
-3.507037285686535 1.483134369558031 0.094987419247429
-3.508754511710812 1.478875632151722 0.081654118862488
-3.502560482047126 -0.480534830028830 0.129747297588865
-3.501960210189555 -0.485411909431411 0.134408073093354
-3.501333312387826 -0.490281939606250 0.139275584173979
-3.500679878347885 -0.495144707151967 0.144349134314210
-3.499999999999999 -0.500000000000000 0.149628009726893
-3.499293771475811 -0.504847607442728 0.155111479532433
-3.498561289084979 -0.509687320161135 0.160798795940157
-3.497802651291418 -0.514518930252025 0.166689194432789
-3.508754511710812 -1.478875632151722 0.081654118862488
-3.507037285686535 -1.483134369558031 0.094987419247429
-3.505303048338769 -1.487376245200303 0.108452803052268
-3.503551972846839 -1.491601187950784 0.122048925636326
-3.501784232365145 -1.495809128630705 0.135774442552459
-3.499999999999999 -1.500000000000000 0.149628009726893
-3.498199448786756 -1.504173736746762 0.163608283636807
-3.496382751667233 -1.508330275476436 0.177713921485652
-3.513935964291194 -2.480014753034736 0.041423035296411
-3.511629483644212 -2.483389808209173 0.059331568514215
-3.509316362682062 -2.486747146043826 0.077291660068289
-3.506996728316751 -2.490086799759630 0.095302324557796
-3.504670706532596 -2.493408803356195 0.113362583784950
-3.502338422385097 -2.496713191597884 0.131471466763658
-3.499999999999999 -2.499999999999999 0.149628009726892
-3.497655562572499 -2.503269264815073 0.167831256132798
-3.517323267673232 -3.482326767323267 0.015122517572403
-3.514849309270566 -3.484894299777997 0.034331421966022
-3.512374981991725 -3.487447471638235 0.053543190477006
-3.509900349031311 -3.489986342253022 0.072757332434558
-3.507425472887767 -3.492510970996217 0.091973362573209
-3.504950415368116 -3.495021417261365 0.111190800995965
-3.502475237592714 -3.497517740456666 0.130409173137428
-3.499999999999999 -3.499999999999999 0.149628009726893
-3.519273906226633 -4.484740591598844 -0.000023100655629
-3.516855975290458 -4.486684721195133 0.018750781772360
-3.514440480260767 -4.488618261377520 0.037505750747837
-3.512027445434042 -4.490541263713159 0.056241617622190
-3.509616894750885 -4.492453779590591 0.074958196510035
-3.507208851799418 -4.494355860219058 0.093655304262791
-3.504803339818662 -4.496247556627849 0.112332760442435
-3.502400381701900 -4.498128919665661 0.130990387295435
-3.499312709047839 4.500534222845944 0.116432707783652
-3.501719159606397 4.498660765168495 0.097694957706775
-3.504128207589867 4.496776980785318 0.078936982864140
-3.506539830351780 4.494882818648161 0.060158959591751
-3.508954004900300 4.492978227525347 0.041361066914810
-3.511370707894845 4.491063156002377 0.022543486574004
-3.513789915642694 4.489137552482569 0.003706403051948
-3.516211604095562 4.487201365187712 -0.015149996400160
-3.497517740456666 3.502475237592714 0.130409173137428
-3.499999999999999 3.499999999999999 0.111081138832499
-3.502482259486659 3.497510678608682 0.091753104968849
-3.504964458644349 3.495007213488920 0.072425540854792
-3.507446536515878 3.492489544715744 0.053098921131528
-3.509928431454345 3.489957612374011 0.033773725810696
-3.512410081118309 3.487411356563440 0.014450440311899
-3.514891422466984 3.484850717403716 -0.004870444499781
-3.495965913159715 2.505609529038264 0.142492426603552
-3.498321255235688 2.502343594175918 0.124152631086793
-3.500670636264488 2.499060042611401 0.105859251072616
-3.503013932670789 2.495758837259666 0.087613248776345
-3.505351019937642 2.492439941771466 0.069415593745192
-3.507681772607165 2.489103320547179 0.051267262852943
-3.510006064281382 2.485748938750757 0.033169240293379
-3.512323767623237 2.482376762323767 0.015122517572402
-3.495586648491223 1.510134895158589 0.145445558778210
-3.497415473264976 1.505974069994068 0.131205473344857
-3.499228135603582 1.501795922110476 0.117091236194307
-3.501024461136845 1.497600514613036 0.103104205054480
-3.502804275390244 1.493387912541395 0.089245738465637
-3.504567403807707 1.489158182880693 0.075517195603050
-3.506313671774676 1.484911394572382 0.061919936097356
-3.508042904641482 1.480647618524758 0.048455319852603
-3.502482824903000 -0.481178585412736 0.091748702372650
-3.501877284853274 -0.486068570299377 0.096463720544516
-3.501244979602474 -0.490951436909844 0.101387145095939
-3.500585999928969 -0.495826970202791 0.106518269184063
-3.499900438857629 -0.500694956488823 0.111856368473711
-3.499188391636493 -0.505555183458949 0.117400701319083
-3.498449955713020 -0.510407440212577 0.123150508948679
-3.497685230709927 -0.515251517285053 0.129105015653389
-3.508042904641482 -1.480647618524758 0.048455319852603
-3.506313671774676 -1.484911394572382 0.061919936097356
-3.504567403807707 -1.489158182880693 0.075517195603050
-3.502804275390244 -1.493387912541395 0.089245738465637
-3.501024461136845 -1.497600514613036 0.103104205054480
-3.499228135603582 -1.501795922110476 0.117091236194307
-3.497415473264976 -1.505974069994068 0.131205473344857
-3.495586648491223 -1.510134895158589 0.145445558778210
-3.512323767623237 -2.482376762323767 0.015122517572402
-3.510006064281382 -2.485748938750757 0.033169240293379
-3.507681772607165 -2.489103320547179 0.051267262852943
-3.505351019937642 -2.492439941771466 0.069415593745192
-3.503013932670789 -2.495758837259666 0.087613248776345
-3.500670636264488 -2.499060042611401 0.105859251072616
-3.498321255235688 -2.502343594175918 0.124152631086793
-3.495965913159715 -2.505609529038264 0.142492426603552
-3.514891422466984 -3.484850717403716 -0.004870444499781
-3.512410081118309 -3.487411356563440 0.014450440311899
-3.509928431454345 -3.489957612374011 0.033773725810696
-3.507446536515878 -3.492489544715744 0.053098921131528
-3.504964458644349 -3.495007213488920 0.072425540854792
-3.502482259486659 -3.497510678608682 0.091753104968849
-3.499999999999999 -3.499999999999999 0.111081138832499
-3.497517740456666 -3.502475237592714 0.130409173137428
-3.516211604095562 -4.487201365187712 -0.015149996400160
-3.513789915642694 -4.489137552482569 0.003706403051948
-3.511370707894845 -4.491063156002377 0.022543486574004
-3.508954004900300 -4.492978227525347 0.041361066914810
-3.506539830351780 -4.494882818648161 0.060158959591751
-3.504128207589867 -4.496776980785318 0.078936982864140
-3.501719159606397 -4.498660765168495 0.097694957706775
-3.499312709047839 -4.500534222845944 0.116432707783652
