ply
format ascii 1.0
element vertex 871
property double x
property double y
property double z
end_header
2.506512962672234 3.494552140818042 -0.016405659320555
2.509760153886269 3.491824366536499 -0.027325666862129
2.496675831639071 3.502768619406259 0.038540530730116
2.499919965782875 3.500066753045904 0.027645637104795
2.503163932645818 3.497357358242486 0.016750456677028
2.506407717602794 3.494640421395535 0.005855035709666
2.509651305964598 3.491915928908965 -0.005040579324583
2.512894682977775 3.489183867191292 -0.015936341742658
2.499822146678192 3.500148333351901 0.049807465849484
2.503062516886157 3.497442178114317 0.038936607209197
2.506302706049096 3.494728497997017 0.028065502992241
2.509542699528717 3.492007279449011 0.017194199443284
2.512782482622766 3.489278508923884 0.006322743016133
2.516022040564886 3.486542172880019 -0.004548819625756
2.482443925307130 2.516268365431875 -0.002831154533868
2.485600777496978 2.513363277841472 -0.013451680591931
2.488756713697416 2.510450217477549 -0.024070104591587
2.491911716080245 2.507529171658002 -0.034686369786072
2.509434333776442 3.492098418890238 0.039378839546993
2.512670530890136 3.489372931670446 0.028531608488579
2.515906503861293 3.486639896171855 0.017684265534281
2.485250137069230 2.513686388798673 0.009011270724150
2.488402675930911 2.510777449158700 -0.001583878234451
2.491554285044602 2.507860543186020 -0.012176886947206
2.494704946579629 2.504935658257548 -0.022767698732118
2.497854642635731 2.502002781769478 -0.033356256678326
2.501003355242953 2.499061901137576 -0.043942503645727
2.484900262355836 2.514008685757603 0.031421871624525
2.488049410957715 2.511103855584267 0.020849923027096
2.491197633860197 2.508191078133146 0.010280096244120
2.494344913299615 2.505270340820920 -0.000287552335177
2.497491231443031 2.502341631083426 -0.010852966094032
2.500636570388132 2.499404936375957 -0.021416088187770
2.503780912163130 2.496460244173564 -0.031976861543457
2.490841760003996 2.508520779634437 0.032684762419254
2.493985664363454 2.505604178590554 0.022140202935012
2.497128611588272 2.502679624187735 0.011597859383572
2.500270583843444 2.499747103920634 0.001057788316012
2.503411563224808 2.496806605303550 -0.009479953489641
2.506551531758945 2.493858115870708 -0.020015309028066
2.509690471403081 2.490901623176590 -0.030548221066274
2.493627197238002 2.505937174731308 0.044515749177600
2.496766780517595 2.503016764292904 0.033996402162692
2.499905393034453 2.500088407028074 0.023479308581902
2.503043016951702 2.497152090490194 0.012964524920172
2.506179634363533 2.494207802252455 0.002452107888429
2.509315227295096 2.491255529908167 -0.008057885576065
2.512449777702408 2.488295261071066 -0.018565398309354
2.499540995397636 2.500428848938598 0.045848654484023
2.502675270759923 2.497496703019864 0.035356755865608
2.505808543936304 2.494556604449329 0.024867204374077
2.508940797019520 2.491608540858981 0.014380056652814
2.512072012033491 2.488652499901101 0.003895369570582
2.515202170933223 2.485688469248579 -0.006586799778138
2.505438257884145 2.494904525777539 0.047230162072574
2.508567177963225 2.491960659391670 0.036765787565983
2.511695064405236 2.489008834695726 0.026303853743050
2.514821899233071 2.486049039400860 0.015844417403598
2.517947664400920 2.483081261239005 0.005387535572201
2.488005127850518 -0.482619258117926 -0.020898565329465
2.490584008143616 -0.486328238099243 -0.029572649448519
2.493158290143477 -0.490045712795162 -0.038233058857633
2.495727946407367 -0.493771683256529 -0.046879706058192
2.498292949448475 -0.497506150438304 -0.055512503399501
2.486992776107035 -0.481167394443050 0.001724508407576
2.489570644909099 -0.484869005569644 -0.006936798634339
2.492143936177772 -0.488579092487665 -0.015584516895058
2.494712622577231 -0.492297656282031 -0.024218559330748
2.497276676727640 -0.496024697942373 -0.032838838745865
2.499836071205482 -0.499760218362585 -0.041445267794192
2.502390778543905 -0.503504218340386 -0.050037758979851
2.488558778795256 -0.483414255378715 0.015645123852221
2.491131073323688 -0.487116978012051 0.007010092733024
2.493698783739630 -0.490828158680765 -0.001611348369789
2.496261882769731 -0.494547798408772 -0.010219112713176
2.498820343097018 -0.498275898124842 -0.018813113403806
2.501374137361233 -0.502012458662160 -0.027393263399072
2.503923238159172 -0.505757480757882 -0.035959475508122
2.506467618045038 -0.509510965052695 -0.044511662392885
2.490119700714450 -0.485659350336370 0.029550945528114
2.492686429091039 -0.489363171325191 0.020942102098860
2.495248566835148 -0.493075432614316 0.012346849741160
2.497806086735859 -0.496796135167007 0.003765274898088
2.500358961539026 -0.500525279851529 -0.004802535838360
2.502907163947614 -0.504262867440710 -0.013356495728321
2.505450666622031 -0.508008898611498 -0.021896517885079
2.507989442180479 -0.511763373944527 -0.030422515276101
2.510523463199302 -0.515526293923676 -0.038934400724092
2.491675557805588 -0.487902675187678 0.043441966688695
2.494236728161398 -0.491607581436165 0.034859223002061
2.496793301423563 -0.495320910270979 0.026290071263615
2.499345250443569 -0.499042662595078 0.017734597617340
2.501892548030059 -0.502772839216574 0.009192888354730
2.504435166949179 -0.506511440848287 0.000665029913784
2.506973079924908 -0.510258468107315 -0.007848891122041
2.509506259639411 -0.514013921514592 -0.016348788024848
2.512034678733377 -0.517777801494455 -0.024834573923366
2.495781986438575 -0.493850204318827 0.048761449192557
2.498333003417475 -0.497564587679998 0.040218310233790
2.500879389813971 -0.501287376777738 0.031688849768549
2.503421118499460 -0.505018572360355 0.023173153788702
2.505958162303226 -0.508758175081015 0.014671308431239
2.508490494012781 -0.512506185497312 0.006183399977249
2.511018086374202 -0.516262604070835 -0.002290485149125
2.513540912092484 -0.520027431166732 -0.010750260381735
2.499867688682920 -0.499806460916897 0.054131560896653
2.502408520721410 -0.503530273845852 0.045628025883772
2.504944688829605 -0.507262475469192 0.037138255284176
2.507476165899886 -0.511003066380778 0.028662334934722
2.510002924783252 -0.514752047079054 0.020200350815004
2.512524938289650 -0.518509417966614 0.011752389046302
2.491961504563947 -1.485633027726137 -0.040258592677970
2.494211819591664 -1.489630221174623 -0.047874551825389
2.496455936722567 -1.493635447965997 -0.055471842093570
2.503932658993547 -0.505771349976088 0.059552120701555
2.506463274855984 -0.509504544775036 0.051088187867564
2.508989193582204 -0.513246111034927 0.042638104739989
2.511510388086641 -0.516996049195398 0.034201956997797
2.488587060963141 -1.479674463701442 -0.010291193770210
2.490844145255153 -1.483655325169484 -0.017919445888985
2.493095087188473 -1.487644212328934 -0.025529231777346
2.495339858619173 -1.491641118719862 -0.033120461567433
2.497578431394281 -1.495646037762443 -0.040693045348164
2.499810777352324 -1.499658962756635 -0.048246893166950
2.502036868323888 -1.503679886881859 -0.055781915031414
2.489727693733801 -1.481683864439906 0.004368872842586
2.491979247701215 -1.485664470269298 -0.003234699291266
2.494224658423954 -1.489653081224461 -0.010819827390789
2.496463897844603 -1.493649690806263 -0.018386421964509
2.498696937897015 -1.497654292396029 -0.025934393478747
2.500923750506856 -1.501666879255232 -0.033463652359347
2.503144307592166 -1.505687444525162 -0.040974108993360
2.505358581063907 -1.509715981226633 -0.048465673730772
2.490864306579816 -1.483690969106744 0.019009186935690
2.493110341702904 -1.487671309507261 0.011430201185271
2.495350232741594 -1.491659634514735 0.003869637191155
2.497583951724771 -1.495655937591179 -0.003672415929973
2.499811470672890 -1.499660212079417 -0.011195869020268
2.502032761598541 -1.503672451202773 -0.018700632882395
2.504247796506989 -1.507692648064765 -0.026186618281226
2.506456547396736 -1.511720795648785 -0.033653735945566
2.508658986260069 -1.515756886817790 -0.041101896569873
2.491996913946435 -1.485695777721121 0.033629764594514
2.494237441691603 -1.489675842957675 0.026075271999310
2.496471824558606 -1.493663872329172 0.018539178801689
2.498700034662405 -1.497659859259106 0.011021573745096
2.500922044109849 -1.501663797052147 0.003522545613146
2.503137825000225 -1.505675678893821 -0.003957816772061
2.505347349425806 -1.509695497850204 -0.011419424551624
2.507550589472403 -1.513723246867617 -0.018862188831542
2.509747517219918 -1.517758918772311 -0.026286020684457
2.493125530225280 -1.487698290329853 0.048230622029629
2.495360562044978 -1.491678070722250 0.040700529733280
2.497589448238388 -1.495665794824337 0.033188814396304
2.499812161006337 -1.499661456021438 0.025695564390472
2.502028672541846 -1.503665047580408 0.018220868126743
2.504238955030682 -1.507676562649319 0.010764814053579
2.506442980651900 -1.511695994257149 0.003327490655260
2.508640721578399 -1.515723335313486 -0.004091013549820
2.510832149977469 -1.519758578608212 -0.011490610010858
2.496479717087161 -1.493677992929844 0.055305991091918
2.498703118090716 -1.497665402183695 0.047818561051355
2.500920345051678 -1.501660728116216 0.040349573455337
2.503131370249029 -1.505663963956787 0.032899116343739
2.505336165954791 -1.509675102816363 0.025467277792961
2.507534704434581 -1.513694137687164 0.018054145914250
2.509726957948159 -1.517721061442384 0.010659808852010
2.511912898749974 -1.521755866835875 0.003284354782086
2.499812848371926 -1.499662694617384 0.062428435962670
2.502024601040021 -1.503657675807903 0.054983618506906
2.504230151457937 -1.507660546500035 0.047557308203913
2.506429471983739 -1.511671299767956 0.040149592759608
2.508622534969378 -1.515689928567466 0.032760559913792
2.510809312761254 -1.519716425735701 0.025390297438477
2.493041917974435 -2.483844382313766 -0.038457382505954
2.494885690794579 -2.488090380225535 -0.044777226590117
2.496721726287024 -2.492343395849454 -0.051073632360232
2.498549998603677 -2.496603413606426 -0.057346516672276
2.500370481937751 -2.500870417788113 -0.063595796495956
2.491927585179116 -2.481290168555840 -0.016772752495329
2.493774026142525 -2.485527374864094 -0.023094512454055
2.495612761963849 -2.489771593145032 -0.029392967288909
2.497443766853613 -2.494022807947462 -0.035668034149300
2.499267015063053 -2.498281003691529 -0.041919630296375
2.501082480884801 -2.502546164668675 -0.048147673105157
2.502890138653573 -2.506818275041613 -0.054352080066691
2.490812858779887 -2.478743979425686 0.004867308727298
2.492661942840574 -2.482972416496755 -0.001456274926992
2.494503353805792 -2.487207859742891 -0.007756685880514
2.496337065944785 -2.491450293839903 -0.014033841575783
2.498163053566920 -2.495699703335519 -0.020287659565084
2.499981291022370 -2.499956072649338 -0.026518057512563
2.501791752702798 -2.504219386072793 -0.032724953196405
2.503594413042039 -2.508489627769125 -0.038908264510935
2.505389246516784 -2.512766781773359 -0.045067909468762
2.491549456867638 -2.480425474429374 0.020137568809706
2.493393517956278 -2.484652164912283 0.013835293799936
2.495229912185660 -2.488885840517193 0.007556142095261
2.497058613923388 -2.493126485918514 0.001300195852588
2.498879597577286 -2.497374085663112 -0.004932462881063
2.500692837596081 -2.501628624170248 -0.011141752170724
2.502498308470078 -2.505890085731564 -0.017327590195558
2.504295984731838 -2.510158454511040 -0.023489895251025
2.506085840956867 -2.514433714544974 -0.029628585750967
2.507867851764289 -2.518715849741953 -0.035743580229782
2.492283270407850 -2.482104478043077 0.035383053893158
2.494122321732795 -2.486329417333058 0.029101998123996
2.495953712453558 -2.490561320758903 0.022844016331960
2.497777417035720 -2.494800172993841 0.016609190275526
2.499593409985182 -2.499045958584079 0.010397601603122
2.501401665848833 -2.503298661948763 0.004209331850991
2.503202159215233 -2.507558267379944 -0.001955537558889
2.504994864715286 -2.511824759042547 -0.008096925320956
2.506779757022916 -2.516098120974354 -0.014214750248135
2.508556810855747 -2.520378337085976 -0.020308931273995
2.494848365326877 -2.488004177294732 0.044343882463219
2.496674765731164 -2.492234304044693 0.038106981665692
2.498493486368156 -2.496471358683363 0.031893186947631
2.500304501841445 -2.500715325756515 0.025702579561007
2.502107786795702 -2.504966189683377 0.019535240645454
2.503903315917357 -2.509223934756618 0.013391251226213
2.505691063935262 -2.513488545142318 0.007270692212012
2.507471005621377 -2.517760004879942 0.001173644392980
2.509243115791434 -2.522038297882321 -0.004899811561480
2.497393083090634 -2.493904793955862 0.053345082909205
2.499206832957607 -2.498140046608946 0.047152231098065
2.501012884147516 -2.502382190842634 0.040982516638562
2.502811211402435 -2.506631211076453 0.034836020275852
2.504601789506274 -2.510887091603894 0.028712822640556
2.506384593285452 -2.515149816592390 0.022613004246686
2.508159597609572 -2.519419370083291 0.016536645489548
2.509926777392088 -2.523695735991853 0.010483826643664
1.485276045052109 0.515642631831604 1.990945050494995
1.487808154737350 0.512973189453822 1.982718683980622
1.490338637240752 0.510296946129980 1.974496521990846
1.492867475568354 0.507613893780731 1.966278616433651
1.495394652672542 0.504924024358541 1.958065019388180
2.499917467791763 -2.499806240396712 0.062386367929806
2.501718567855680 -2.504046557508664 0.056237458453484
2.503511950585683 -2.508293729834116 0.050111716774996
2.505297590862781 -2.512547741667582 0.044009223132444
2.507075463610577 -2.516808577178052 0.037930057647238
2.508845543795930 -2.521076220408961 0.031874300321987
2.495545188732748 -3.485201714821264 -0.049176086012671
2.496894808847261 -3.489643806890240 -0.053944316990754
2.498235397989740 -3.494091266144212 -0.058685099295283
2.499566936773756 -3.498544068259671 -0.063398369449656
2.500889405907467 -3.503002188803449 -0.068084064257926
1.484754757727067 0.516191137675782 2.009354651202122
1.487284502925179 0.513525940064105 2.001144740957243
1.489812627908018 0.510853957661964 1.992939006606411
1.492339115746971 0.508175182409268 1.984737499788587
1.494863949460005 0.505489606277543 1.976540272312953
1.497387112011662 0.502797221270218 1.968347376158966
1.499908586313052 0.500098019422910 1.960158863476410
2.494574601790120 -3.482028654606975 -0.028551836464597
2.495929227677130 -3.486462162518634 -0.033331231105238
2.497274855736533 -3.490901043498971 -0.038083317610156
2.498611466576614 -3.495345273380719 -0.042808032570096
2.499939040899390 -3.499794827887139 -0.047505312853520
2.501257559501240 -3.504249682632380 -0.052175095608505
2.502567003273510 -3.508709813121826 -0.056817318264725
1.486761896484662 0.514077224097509 2.019528226713930
1.489287667518762 0.511409490204240 2.011338874675470
1.491811808404898 0.508734979579680 2.003153721461385
1.494334302226287 0.506053684214373 1.994972818612576
1.496855132012949 0.503365596130574 1.986796217839290
1.499374280741706 0.500670707382528 1.978623971021173
1.501891731336176 0.497969010056765 1.970456130207310
1.504407466666779 0.495260496272386 1.962292747616258
2.493601494947426 -3.478865105131025 -0.007962361325816
2.494961092294195 -3.483290043053645 -0.012752776689391
2.496311724855279 -3.487720359798531 -0.017516023794298
2.497653373234289 -3.492156031353811 -0.022252039300552
2.498986018127742 -3.496597033598380 -0.026960760142851
2.500309640325669 -3.501043342302227 -0.031642123532552
2.501624220712225 -3.505494933126788 -0.036296066959612
2.502929740266303 -3.509951781625287 -0.040922528194529
2.504226180062140 -3.514413863243107 -0.045521445290244
1.488763753104079 0.511963549480501 2.029696271202571
1.491285550569449 0.509293291066968 2.021527426603667
1.493805707995143 0.506616263995587 2.013362803584322
1.496324208476338 0.503932460307396 2.005202453587237
1.498841035055235 0.501241872075233 1.997046428223595
1.501356170721061 0.498544491404020 1.988894779273100
1.503869598410065 0.495840310431050 1.980747558684017
1.506381301005527 0.493129321326279 1.972604818573197
1.508891261337751 0.490411516292613 1.964466611226120
2.493990432636729 -3.480127418130931 0.007791048265265
2.495346035467101 -3.484549184726690 0.003016783054849
2.496692687050754 -3.488976311912058 -0.001730389846461
2.498030368079318 -3.493408775720724 -0.006450407441510
2.499359059337106 -3.497846552077710 -0.011143207006805
2.500678741701720 -3.502289616799688 -0.015808726094495
2.501989396144656 -3.506737945595329 -0.020446902534282
2.503291003731918 -3.511191514065668 -0.025057674435340
2.504583545624619 -3.515650297704436 -0.029640980188253
2.505867003079575 -3.520114271898432 -0.034196758466926
1.490760339278181 0.509850122617030 2.039858759721676
1.493278163800545 0.507177351418366 2.031710371879627
1.495794338432434 0.504497819649396 2.023566228198024
1.498308846281105 0.501811519401509 2.015426380021238
1.500821670401064 0.499118442797982 2.007290878861260
1.503332793794070 0.496418581994268 1.999159776397726
1.505842199409129 0.493711929178282 1.991033124477955
1.508349870142501 0.490998476570685 1.982910975116979
1.510855788837703 0.488278216425177 1.974793380497580
2.494377817466595 -3.481387488029423 0.023515104656170
2.495729438102675 -3.485806084849691 0.018756916410469
2.497072121012847 -3.490230024097814 0.014025744766112
2.498405846976322 -3.494659281853020 0.009321652379565
2.499730596864773 -3.499093834086412 0.004644701634617
2.501046351642936 -3.503533656661299 -0.000005045359554
2.502353092369217 -3.507978725333560 -0.004627526770273
2.503650800196294 -3.512429015751974 -0.009222681043307
2.504939456371717 -3.516884503458576 -0.013790446904758
2.506219042238505 -3.521345163889030 -0.018330763362962
3.479339457992189 7.513513629534885 0.017031883022761
3.482950608689179 7.511164766701120 0.005548916571122
3.486563007062828 7.508809548703484 -0.005938732960205
3.490176645546789 7.506447962578052 -0.017431043820175
1.495265518921983 0.505061679975824 2.041887685824103
1.497777711456886 0.502379655232105 2.033763970708479
1.500288227410811 0.499690870161145 2.025644573406654
1.502797049850695 0.496995316936519 2.017529545331298
1.505304161790949 0.494292987764067 2.009418938061857
1.507809546193458 0.491583874882175 2.001312803344590
1.510313185967590 0.488867970562067 1.993211193092597
1.512815063970194 0.486145267108089 1.985114159385842
2.494763656240937 -3.482645320022550 0.039209880902453
2.496111306960509 -3.487060748633871 0.034467696816956
2.497450033456779 -3.491481501581902 0.029752453866133
2.498779816596107 -3.495907554991355 0.025064214367849
2.500100637337093 -3.500338884879388 0.020403040368308
2.501412476731174 -3.504775467155905 0.015768993640110
2.502715315923234 -3.509217277623939 0.011162135680395
2.504009136152191 -3.513664291979970 0.006582527708904
2.505293918751601 -3.518116485814292 0.002030230666116
2.506569645150250 -3.522573834611370 -0.002494694788667
3.483577765201257 7.510756270152130 0.027091812036482
3.487186550248287 7.508402447874161 0.015628191318380
3.490796571471465 7.506042268724713 0.004159924974716
3.494407821281066 7.503675719763592 -0.007312965201939
3.498020292046812 7.501302788035823 -0.018790457295514
1.497247627630229 0.502946285408227 2.052059343939983
1.499755838794965 0.500261779386184 2.043956006704028
1.502262363621843 0.497570521202190 2.035857009418124
1.504767185190357 0.494872503079974 2.027762403395498
1.507270286527693 0.492167717275616 2.019672240115291
1.509771650608739 0.489456156077832 2.011586571222585
1.512271260356087 0.486737811808258 2.003505448528436
1.514769098640041 0.484012676821744 1.995428924009877
2.496491648766138 -3.488313181278127 0.050149197511379
2.497826431063890 -3.492730749577928 0.045449811071616
2.499152283575776 -3.497153600363750 0.040777352521567
2.500469187346890 -3.501581709698756 0.036131883571933
2.501777123514945 -3.506015053539410 0.031513465660831
2.503076073310864 -3.510453607735851 0.026922159951951
2.504366018059378 -3.514897348032210 0.022358027332617
2.505646939179621 -3.519346250066983 0.017821128411950
2.506918818185717 -3.523800289373386 0.013311523518985
3.487808809985448 7.507996019872730 0.037153675296845
3.491415220933307 7.505637246655658 0.025709378812294
3.495022856565994 7.503272114892654 0.014260474039720
3.498631709270518 7.500900611667324 0.002806982812787
3.502241771393344 7.498522724048608 -0.008651072911538
3.505853035240252 7.496138439090840 -0.020113671052532
1.504231266656656 0.495450481092168 2.046063663912024
1.506732088192163 0.492750009769094 2.037989428997596
1.509231179805993 0.490042779042716 2.029919658589973
1.511728524486158 0.487328781251934 2.021854404232952
1.514224105168600 0.484608008768655 2.013793717635428
1.516717904737192 0.481880453998076 2.005737650671414
2.498201320481838 -3.493977773287028 0.061117889796320
2.499523254518925 -3.498397423185601 0.056461140632427
2.500836253453662 -3.502822313773869 0.051831305414405
2.502140298509602 -3.507252421054810 0.047228445247954
2.503435371003287 -3.511687720925618 0.042652620965366
2.504721452344832 -3.516128189178034 0.038103893123633
2.505998524038518 -3.520573801498702 0.033582322002580
2.507266567683377 -3.525024533469533 0.029087967603024
3.495636626266437 7.502869179128587 0.035792442585028
3.499241867906262 7.500499103301971 0.024362877722395
3.502848315112733 7.498122654395515 0.012928763667156
3.506455960209170 7.495739819502135 0.001490122416765
3.510064795478222 7.493350585700266 -0.009953023907754
1.511186853413148 0.487918181530957 2.040161169699156
1.513680179642330 0.485201758842940 2.032116278678201
2.501201842183758 -3.504060702321310 0.067501379856330
2.502502008197536 -3.508487574932182 0.062914006736258
2.503793215438899 -3.512919622436516 0.058353593428842
2.505075445402917 -3.517356820673601 0.053820200162764
2.497281431473756 -4.484208199363665 -0.048133751339304
2.498074742080175 -4.488742523335798 -0.051171683635176
2.498858335894820 -4.493280004580396 -0.054180055009675
2.499632203759582 -4.497820612963483 -0.057158833286836
2.500396336646105 -4.502364318292506 -0.060107986683291
2.501150725656074 -4.506911090317020 -0.063027483809255
3.503453611078497 7.497723250009835 0.034467099624397
3.507057644431626 7.495341864016805 0.023052340918834
3.510662864155985 7.492954090476413 0.011633092203197
3.514269262511212 7.490559916491267 0.000209375638391
2.496613500549187 -4.480435272110328 -0.029071095638591
2.497414052965875 -4.484962155337143 -0.032129230630582
2.498204916827300 -4.489492214192929 -0.035157931824263
2.498986082896673 -4.494025418688302 -0.038157166842299
2.499757542066170 -4.498561738775019 -0.041126903696968
2.500519285357214 -4.503101144346620 -0.044067110791147
2.501271303920769 -4.507643605239104 -0.046977756919269
2.502013589037620 -4.512189091231570 -0.049858811268297
2.502746132118654 -4.516737572046884 -0.052710243418673
3.511259702877267 7.492558256562146 0.033177678239841
3.514862488921591 7.490165553013660 0.021777800076363
3.518466442064833 7.487766447517227 0.010373491171236
3.481922981000411 6.512791451139067 -0.005023176412945
3.485488007665064 6.510281354195523 -0.016322258516537
2.495940276305860 -4.476672527881968 -0.010030280894336
2.496748031725872 -4.481191970924845 -0.013108441396084
2.497546126802528 -4.485714607774781 -0.016157294847342
2.498334552221356 -4.490240408586631 -0.019176808673047
2.499113298796052 -4.494769343456081 -0.022166950684819
2.499882357468777 -4.499301382420332 -0.025127689081859
2.500641719310443 -4.503836495458707 -0.028058992452000
2.501391375521008 -4.508374652493339 -0.030960829772626
2.502131317429741 -4.512915823389820 -0.033833170411638
2.502861536495516 -4.517459977957831 -0.036675984128407
2.503582024307075 -4.522007085951840 -0.039489241074666
3.482298173793213 6.512527570951117 0.016669129269247
3.485859531308028 6.510019414905289 0.005393881424598
3.489421733019235 6.507504524913938 -0.005884846660061
3.492984769527574 6.504982887852225 -0.017167027823676
3.496548631387729 6.502454490584906 -0.028452634765017
2.496076721860001 -4.477431948162690 0.005890597341673
2.496882009463516 -4.481947163536759 0.002821768115648
2.497677655519092 -4.486465561017345 -0.000217847662169
2.498463650762933 -4.490987110843711 -0.003228217606353
2.499239986058925 -4.495511783196340 -0.006209309716111
2.500006652398922 -4.500039548197554 -0.009161092376316
2.500763640903040 -4.504570375912167 -0.012083534358473
2.501510942819936 -4.509104236348146 -0.014976604821641
2.502248549527086 -4.513641099457242 -0.017840273313433
2.502976452531065 -4.518180935135667 -0.020674509770884
2.503694643467809 -4.522723713224726 -0.023479284521423
3.486230281623154 6.509757954260828 0.027066801952992
3.489788818871350 6.507245015231975 0.015811843800415
3.493348188190360 6.504725341985533 0.004553443023965
3.496908380159966 6.502198921426642 -0.006708373187332
3.500469385313923 6.499665740450183 -0.017973577504566
3.504031194139841 6.497125785940840 -0.029242142458491
2.496212608196428 -4.478189859636329 0.021779170557534
2.497015436318496 -4.482700854284482 0.018719628610219
2.497808641637159 -4.487215019389569 0.015689206886535
2.498592214939007 -4.491732325274989 0.012687937583631
2.499366147137822 -4.496252742205702 0.009715852515966
2.500130429274864 -4.500776240388869 0.006772983114284
2.500885052519160 -4.505302789974477 0.003859360424665
2.501630008167786 -4.509832361056014 0.000975015107610
2.502365287646137 -4.514364923671108 -0.001880022562917
2.503090882508209 -4.518900447802166 -0.004705722700420
2.503806784436857 -4.523438903377044 -0.007502055806786
2.504512985244070 -4.527980260269692 -0.010268992773133
3.490155141223786 6.506985980121741 0.037465368718431
3.493710850791663 6.504468267875184 0.026230673647374
3.497267380319990 6.501943821172778 0.014992573435080
3.500824720367716 6.499412626949685 0.003751095298090
3.504382861447814 6.496874672130928 -0.007493733407452
3.507941794027147 6.494329943631501 -0.018741885185339
2.497148314833315 -4.483453047490464 0.034585235438727
2.497939087664626 -4.487962987200265 0.031563964396299
2.498720247223034 -4.492476056175361 0.028571752739010
2.499491784471925 -4.496992224764896 0.025608632096241
2.500253690501681 -4.501511463260558 0.022674633715634
2.501005956529954 -4.506033741897222 0.019769788462130
2.501748573901949 -4.510559030853599 0.016894126817037
2.502481534090707 -4.515087300252861 0.014047678877086
2.503204828697359 -4.519618520163323 0.011230474353541
2.503918449451409 -4.524152660599063 0.008442542571292
2.504622388210984 -4.528689691520600 0.005683912467946
3.497625634192103 6.501689188548309 0.036650334029567
3.501179316571434 6.499159978195340 0.025432507604491
3.504733797354401 6.496624020147166 0.014211340631154
3.508289067033318 6.494081301359014 0.002986860492496
3.511845116054438 6.491531808776204 -0.008240905288775
2.497280647536691 -4.484203747461275 0.050418683591440
2.498068996095774 -4.488709468742365 0.047406520102189
2.498847750075024 -4.493218307823861 0.044423323337819
2.499616900487148 -4.497730235138794 0.041469124743911
2.500376438471354 -4.502245221063093 0.038543955386261
2.501126355293639 -4.506763235916206 0.035647845949897
2.501866642347063 -4.511284249961759 0.032780826738183
2.502597291152021 -4.515808233408183 0.029942927671850
2.503318293356513 -4.520335156409385 0.027134178288161
2.504029640736405 -4.524864989065355 0.024354607739918
3.505084004129602 6.496373828730087 0.035873208694908
3.508635618345108 6.493833116701988 0.024672325942390
3.512188009335784 6.491285643823252 0.013468167293858
3.515741167527402 6.488731397069577 0.002260760298088
2.498198369411362 -4.489454468293000 0.063216968878469
2.498974725941641 -4.493959084483738 0.060242744495706
2.499741497596219 -4.498466777576517 0.057297425814201
2.500498675562853 -4.502977518031190 0.054381043719129
2.501246251155599 -4.507491276251493 0.051493628716850
2.501984215815090 -4.512008022585659 0.048635210933995
2.502712561108802 -4.516527727327085 0.045805820116536
2.503431278731324 -4.521050360714939 0.043005485628879
3.512530190586257 6.491039932254152 0.035134014494057
3.516079695641810 6.488487715169416 0.023950150227415
3.480986137886510 5.514633726871813 0.001107388155962
3.484487274798608 5.511954348364473 -0.009945701776412
3.487988773920011 5.509267845199338 -0.021000849601759
2.500620404142214 -4.503708358383884 0.070185993943345
2.501365646448449 -4.508217867107487 0.067307232226461
2.502101296605398 -4.512730352914827 0.064457375100477
2.502827346227344 -4.517245786183946 0.061636452137799
3.484604073241170 5.511864846004650 0.011889228230050
3.488101916023457 5.509180923199322 0.000857425292774
3.491600108401895 5.506489877200032 -0.010176398364587
3.495098638852613 5.503791694982162 -0.021212209325834
3.498597495800189 5.501086363517233 -0.032249974018029
3.488214821693561 5.509094175691790 0.022670713232504
3.491709364246888 5.506405719607899 0.011660164696936
3.495204243805341 5.503710141827204 0.000647632462684
3.498699448828225 5.501007429361970 -0.010366850045451
3.502194967723386 5.498297569220762 -0.021383249246334
3.491818391994985 5.506321731028310 0.033451806276337
3.495309628262089 5.503628752684996 0.022462479532635
3.498801188965480 5.500928654175249 0.011471205960523
3.502293062547796 5.498221422548218 0.000478018992954
3.505785237400290 5.495507044849512 -0.010517047781184
3.509277701862697 5.492785508121322 -0.021513960616662
3.495414792912394 5.503547527061686 0.044232470624129
3.498902716877789 5.500850037477694 0.033264333046464
3.502390952732879 5.498145429290706 0.022294285359898
3.505879488903786 5.495433689586769 0.011322361005088
3.509368313765314 5.492714805448538 0.000348593578221
3.512857415640842 5.489988763955410 -0.010626983168575
3.502488638918070 5.498069588985395 0.044065688634728
3.505973543973345 5.495360482172310 0.033116834041957
3.509458736803781 5.492644245475554 0.022166139357304
3.512944205767892 5.489920866014836 0.011213638183811
3.516429939172840 5.487190330906762 0.000259364280058
3.513030815170324 5.489853105164630 0.033009317566289
3.516512922372293 5.487125241497391 0.022078049538313
3.482410505883880 4.514851493985418 -0.006648277156957
3.485830690694108 4.511979730368875 -0.017411306571690
3.489250635990258 4.509100456650025 -0.028174630366270
3.482274647612987 4.514965408706750 0.015304879511166
3.485691281296819 4.512096936283020 0.004564382204188
3.489107676530093 4.509220969896727 -0.006176414336482
3.492523819436958 4.506337497012046 -0.016917469787659
3.495939696085242 4.503446505098262 -0.027658743654887
3.485552161456616 4.512213885985902 0.026493443624682
3.488965013965977 4.509341219388023 0.015775104344994
3.492377615252840 4.506461062418455 0.005056501150015
3.495789951430832 4.503573402585306 -0.005662325654629
3.499202008557395 4.500678227401967 -0.016381335592587
3.502613772633663 4.497775524387279 -0.027100488016409
3.488822647374996 4.509461205987634 0.037680074129046
3.492231714352820 4.506584357362831 0.026983853523749
3.495640517365942 4.503700021987967 0.016287404153974
3.499049042517639 4.500808187415075 0.005590766307384
3.502457275855119 4.497908841201609 -0.005106019558180
3.505865203369411 4.495001970910639 -0.015802912814344
3.509272810995245 4.492087564111039 -0.026499872661810
3.495491392926446 4.503826364217934 0.038190594167180
3.498896393380491 4.500937862607167 0.027516259110472
3.502301103250490 4.498041865494494 0.016841770542322
3.505705508573571 4.495138360481412 0.006167168901635
3.509109595330821 4.492227335175181 -0.004507505202687
3.512513349447146 4.489308777189020 -0.015182210991397
3.502145253814904 4.498174598226035 0.038743030623035
3.505546144189665 4.495274450764677 0.028090651663021
3.508946717314933 4.492366799173457 0.017438194409523
3.512346959162000 4.489451631103790 0.006785699451548
3.515746855646116 4.486528934213219 -0.003866792452090
3.508784175902455 4.492505957114824 0.039337374450753
3.512180912688241 4.489594171157796 0.028707021757018
3.515577305513767 4.486674872567220 0.018076665950692
3.485039025161837 3.513996252926054 -0.003586724409756
3.488351256730781 3.510913079449309 -0.013975610525545
3.491662511679111 3.507822046738264 -0.024362649282282
3.494972773434834 3.504723143317466 -0.034747792431751
3.484651612944552 3.514356302141720 0.018463343992876
3.487960534888355 3.511277236530669 0.008095664260973
3.491268484176332 3.508190329273926 -0.002270184134775
3.494575444294863 3.505095568929514 -0.012634153180824
3.497881398670841 3.501992944072921 -0.022996194682460
3.501186330671569 3.498882443297340 -0.033356260263554
3.487570606297728 3.511640532652875 0.030118876151647
3.490875256279355 3.508557740251508 0.019774155020596
3.494178921095313 3.505467112326042 0.009431297087862
3.497481584230851 3.502368637485220 -0.000909649686124
3.500783229111905 3.499262304355388 -0.011248637160490
3.504083839104994 3.496148101580749 -0.021585617013660
3.507383397517175 3.493026017823593 -0.031920540743086
3.490482825585127 3.508924282730260 0.041770524483652
3.493783201415845 3.505837776606248 0.031448714918554
3.497082579608735 3.502743441105319 0.021128800233344
3.500380943648076 3.499641264886851 0.010810828335003
3.503678276958994 3.496531236627969 0.000494847310236
3.506974562907400 3.493413345023789 -0.009819094574256
3.510269784799898 3.490287578787662 -0.020130948871537
3.496684382376593 3.503117358058051 0.043119311188903
3.499979471835198 3.500019328056820 0.032822292577641
3.503273534704938 3.496913463561192 0.022527248201122
3.506566554410307 3.493799753298986 0.012234226091569
3.509858514316749 3.490678186016149 0.001943274460472
3.513149397730592 3.487548750477005 -0.008345558301147
3.502869609890724 3.497294785571160 0.044511741581091
3.506159369557095 3.494185245880505 0.034239577415558
3.509448073661111 3.491067866722165 0.023969466730491
3.512735705567913 3.487942636892834 0.013701457681856
3.516022248583698 3.484809545207724 0.003435598604435
3.512322846903613 3.488335589196763 0.035700536958458
3.515606148892505 3.485206709934309 0.025455422866074
3.484790749012162 2.515927678475903 0.001017494869245
3.487966181980720 2.512621411707326 -0.008920537073882
3.491139769192481 2.509307007328467 -0.018854214464755
3.494311491337861 2.505984455732695 -0.028783481071108
3.497481329047398 2.502653747346654 -0.038708280477361
3.487340246404363 2.513273932220943 0.013201418664293
3.490510943339100 2.509964536355924 0.003287022413463
3.493679782856715 2.506647011881903 -0.006622992921055
3.496846745659170 2.503321349248349 -0.016528571205433
3.500011812388783 2.499987538938121 -0.026429656123423
3.503174963628209 2.496645571467770 -0.036326191176289
3.489883333707823 2.510620398476675 0.025379106071242
3.493049294985408 2.507307887128907 0.015488290045424
3.496213387230588 2.503987256190567 0.005601881112695
3.499375591157010 2.500658496167081 -0.004280064691717
3.502535887418907 2.497321597597375 -0.014157491151063
3.505694256611095 2.493976551054163 -0.024030341866974
3.508850679268950 2.490623347144261 -0.033898560259407
3.492420024354526 2.507967087702305 0.037550528973651
3.495581250386449 2.504651474457378 0.027683237790508
3.498740595815656 2.501327750657271 0.017820379690820
3.501898041367611 2.497995906863229 0.007962010611030
3.505053567708610 2.494655933670086 -0.001891813331749
3.508207155445753 2.491307821706580 -0.011741035839687
3.511358785126953 2.487951561635649 -0.021585600434148
3.498106822995428 2.501995308717849 0.039871837812173
3.501261422099663 2.498668505630209 0.030032475062817
3.504414109813195 2.495333591656470 0.020197627039226
3.507564866814505 2.491990557447242 0.010367349758705
3.510713673723127 2.488639393687132 0.000541699418400
3.513860511099637 2.485280091095046 -0.009279267604609
3.503775879556452 2.496009531403139 0.042238139672550
3.506923810001872 2.492671560812030 0.032426757123891
3.510069798278903 2.489325479165339 0.022619970739330
3.513213825019647 2.485971277203399 0.012817836615200
3.516355870797478 2.482608945700944 0.003020411026858
3.512568375629700 2.486660709006590 0.034866022423143
3.515707622897126 2.483303482408662 0.025087348652822
3.490470983208226 -0.484388359765499 -0.030313300701560
3.492964680259703 -0.488450001158541 -0.038168306265599
3.495452995638058 -0.492519638436994 -0.046008867526470
3.489335321353112 -0.482544168931073 -0.008544948099938
3.491828955149881 -0.486598097732768 -0.016391661640183
3.494317229549282 -0.490660007748085 -0.024224014480385
3.496800119376914 -0.494729895956361 -0.032041933089245
3.499277599438223 -0.498807759244492 -0.039845343863076
3.501749644518864 -0.502893594406631 -0.047634173126858
4.480723728972081 8.513077884324368 0.005370970571456
4.484514135267468 8.510518212508147 -0.006004150036949
4.488305608272854 8.507952001175257 -0.017383346735106
3.488200834512936 -0.480705324450191 0.013176392940256
3.490694395095362 -0.484751562801591 0.005337988245554
3.493182618450505 -0.488805767715740 -0.002486138845398
3.495665479488862 -0.492867936222958 -0.010295915139058
3.498142953100701 -0.496938065261625 -0.018091267369383
3.500615014156417 -0.501016151677890 -0.025872122198836
3.503081637506887 -0.505102192225370 -0.033638406219383
3.505542797983835 -0.509196183564862 -0.041390045953517
4.485048825083227 8.510156667160739 0.015625790586081
4.488836650431118 8.507592106497709 0.004269250169675
4.492625531284305 8.505021005307205 -0.007091332827978
4.496415459654086 8.502443351219741 -0.018455937134689
3.489561002299698 -0.482910375545474 0.027020774663313
3.492049164623563 -0.486956897444395 0.019204890334492
3.494531986780211 -0.491011368357091 0.011403273874034
3.497009443744432 -0.495073785272995 0.003615998211992
3.499481510471054 -0.499144145089807 -0.004156863649951
3.501948161895302 -0.503222444613204 -0.011915238639478
3.504409372933163 -0.507308680556543 -0.019659053614644
3.506865118481744 -0.511402849540579 -0.027388235364857
3.509315373419645 -0.515504948093166 -0.035102710611922
4.489366650759575 8.507232803758090 0.025881752732949
4.493151887574852 8.504663362881763 0.014543771138796
4.496938168701443 8.502087380497363 0.003201780366917
4.500725486130589 8.499504844259357 -0.008144198280242
4.504513831814800 8.496915741810747 -0.019494143389931
3.493399643568567 -0.489160171484828 0.033055764221702
3.495877073765862 -0.493214898329123 0.025276582833527
3.498349135938625 -0.497277553617481 0.017511732149733
3.500815805106131 -0.501348134207200 0.009761284908542
3.503277056268335 -0.505426636863760 0.002025313917975
3.505732864406213 -0.509513058260536 -0.005696107945185
3.508183204482146 -0.513607394978513 -0.013402907736352
3.510628051440263 -0.517709643505993 -0.021095012444185
4.493677211912395 8.504306309232424 0.036138824549866
4.497459852644870 8.501731996784756 0.024819380375380
4.501243526505461 8.499151141878535 0.013495960321856
4.505028225465472 8.496563732192229 0.002168585721638
4.508813941457487 8.493969755392936 -0.009162721982802
3.494745845518210 -0.491361383577823 0.046890616085907
3.497217892991179 -0.495416356333551 0.039133794471573
3.499684569650816 -0.499479240004941 0.031391293373391
3.502145850580737 -0.503550031409163 0.023663185267043
3.504601710845508 -0.507628727271773 0.015949542697138
3.507052125490991 -0.511715324226443 0.008250438276245
3.509497069544710 -0.515809818814661 0.000565944683846
3.511936518016225 -0.519912207485451 -0.007103865334619
4.501760551609269 8.498798023295286 0.035096045487655
4.505541610699412 8.496212304547564 0.023791174612717
4.509323683696805 8.493620030123340 0.012482382414631
4.513106762514212 8.491021187713887 0.001169690365257
3.498554457996859 -0.497615741101287 0.052974915348656
3.501015758417251 -0.501678843212924 0.045254688703391
3.503471660426436 -0.505749835519905 0.037548844506864
3.505922139153469 -0.509828714708140 0.029857455041191
3.508367169708988 -0.513915477371865 0.022180592655620
3.510806727185552 -0.518010120013348 0.014518329765485
3.513240786658022 -0.522112639042606 0.006870738851216
4.509832427308048 8.493270883565291 0.034087390918847
4.513611866884302 8.490673753121593 0.022797159446249
4.517392301079735 8.488070053850445 0.011503061270050
3.504793248131658 -0.507947545392281 0.051418269828625
3.507238354675632 -0.512026598072224 0.043749058411790
3.509678010538364 -0.516113516642694 0.036094362916587
3.512112190877342 -0.520208297567012 0.028454255495121
4.481081596389713 7.513797254555534 0.013149713046596
4.484814358007814 7.511087923240440 0.001999901988031
4.488547795432592 7.508371732774610 -0.009152901344797
4.492281899096668 7.505648670762942 -0.020308671330573
3.490690694428709 -1.481255315444317 -0.020893571539216
3.492840243599813 -1.485548619602809 -0.027732139704233
3.494983104301885 -1.489849241699026 -0.034552590253005
3.497119252112878 -1.494157172070324 -0.041354851469267
3.499248662622565 -1.498472400949560 -0.048138851654791
4.485107053099886 7.510875208865780 0.023678531445323
4.488836830077684 7.508161185096144 0.012548007790306
4.492567271229460 7.505440302482526 0.001414525105124
4.496298366970226 7.502712548658775 -0.009721890970162
4.500030107672092 7.499977911251457 -0.020861214673329
3.489511871116535 -1.478909582745986 0.000365245758105
3.491662931262350 -1.483194610218636 -0.006470794126057
3.493807329598583 -1.487486946323144 -0.013288816415701
3.495945041769704 -1.491786581482755 -0.020088749676523
3.498076043431698 -1.496093506016720 -0.026870522491359
3.500200310252548 -1.500407710140128 -0.033634063461542
3.502317817912711 -1.504729183963770 -0.040379301208261
3.504428542105605 -1.509057917493985 -0.047106164373929
4.489125294420007 7.507951014691970 0.034207546631010
4.492852080179061 7.505232308122190 0.023096284854537
4.496579518495143 7.502506743045355 0.011982097174906
4.500307599765781 7.499774307124317 0.000865009250599
4.504036314345640 7.497034988014722 -0.010254953138042
4.507765652546410 7.494288773365139 -0.021377764088437
3.490485958892819 -1.480847471309143 0.014747592468485
3.492631877211221 -1.485131542967042 0.007932050850017
3.494771135974506 -1.489422904440477 0.001134498525954
3.496903710904780 -1.493721546134464 -0.005644993366724
3.499029577735831 -1.498027458350372 -0.012406353708620
3.501148712213612 -1.502340631285749 -0.019149511399315
3.503261090096719 -1.506661055034195 -0.025874395358679
3.505366687156867 -1.510988719585204 -0.032580934528262
3.507465479179386 -1.515323614824027 -0.039269057872643
4.496860115605029 7.502301306970522 0.033644700720603
4.500584544559300 7.499571069118627 0.022549782382269
4.504309604849620 7.496833960818543 0.011451996827449
4.508035286813330 7.494089969755056 0.000351369854278
4.511761580744846 7.491339083605986 -0.010752072617122
3.491456756177567 -1.482783006151447 0.029110107202096
3.493597543881453 -1.487066115410925 0.022314988255319
3.495731674312888 -1.491356495717368 0.015537830292133
3.497859123271375 -1.495654137457795 0.008778704153523
3.499979866568276 -1.499959030915908 0.002037680662414
3.502093880027277 -1.504271166271945 -0.004685169377684
3.504201139484876 -1.508590533602540 -0.011389775184006
3.506301620790853 -1.512917122880563 -0.018076065995909
3.508395299808762 -1.517250923975001 -0.024743971076199
4.504582356769026 7.496633295317938 0.033117548361091
4.508304389605390 7.493891524360415 0.022039039372680
4.512027032495430 7.491142871094666 0.010957721894558
4.515750275716394 7.488387323227789 -0.000126378135981
3.494559942835302 -1.488998329285087 0.036678042999051
3.496688956155132 -1.493287721929585 0.029921204095875
3.498811290389833 -1.497584357269384 0.023182368401706
3.500926921428098 -1.501888225570752 0.016461606444310
3.503035825171120 -1.506199316996835 0.009758988731594
3.505137977533061 -1.510517621607520 0.003074585750287
3.507233354441523 -1.514843129359281 -0.003591532035450
3.509321931838047 -1.519175830105055 -0.010239294185332
4.512291961433957 7.490947012328900 0.032626104614945
4.516011558829335 7.488193706615657 0.021564070690442
3.495519085591298 -1.490928186337597 0.051021240032515
3.497642992998917 -1.495216584865957 0.044284645191057
3.499760223736758 -1.499512207398736 0.037566024934890
3.501870753770619 -1.503815044184987 0.030865449497928
3.503974559078962 -1.508125085370990 0.024182989093798
3.506071615653375 -1.512442321000104 0.017518713914482
3.508161899499057 -1.516766741012629 0.010872694128997
3.510245386635289 -1.521098335245668 0.004244999882045
3.498593796298356 -1.497143086328233 0.058628178871596
3.500705934745175 -1.501437689688067 0.051929699348926
3.502811375007565 -1.505739488641212 0.045249235721669
3.504910093141020 -1.510048473317296 0.038586857910452
3.507002065214323 -1.514364633743373 0.031942635813848
3.509087267310024 -1.518687959843784 0.025316639307022
3.511165675524915 -1.523018441440019 0.018708938240420
4.481766490295924 6.514376546239841 0.012752898665581
4.485429555688146 6.511502338354481 0.001855859007219
4.489092829335325 6.508620945301402 -0.009042891227847
4.492756299853692 6.505732354907205 -0.019943321454137
3.505842438704089 -1.511969482770821 0.052970621418586
3.507929337540968 -1.516284561812387 0.046346377987868
4.485479637204196 6.511462993509158 0.023595700588378
4.489139295828839 6.508584351322503 0.012718666309979
4.492799150791616 6.505698525849157 0.001839953840838
4.496459190695044 6.502805504950113 -0.009040406230721
4.500119404094713 6.499905276484873 -0.019922383182944
4.489185670667889 6.508547828394986 0.034437562298400
4.492841917202885 6.505664762557973 0.023580503100791
4.496498348180602 6.502774515344436 0.012721797969077
4.500154952189956 6.499877074649772 0.001861477494064
4.503811717773020 6.496972428368005 -0.009000427600346
4.507468633424923 6.494060564391942 -0.019863886456807
3.493994882202371 -2.484249540280327 -0.030483630564803
3.495724021619846 -2.488751155858870 -0.036108063620214
3.497445236844296 -2.493258956966679 -0.041710906966195
3.499158506823464 -2.497772926804364 -0.047292098057946
3.500863810555499 -2.502293048470599 -0.052851574478247
4.496537428497953 6.502743586003552 0.034441337478493
4.500190430227332 6.499848927727716 0.023602609247988
4.503843593100910 6.496947077944347 0.012762297803940
4.507496905647367 6.494038024581991 0.001920433872045
4.511150356348519 6.491121755568114 -0.008922951688904
3.492875840661301 -2.481350444407152 -0.009988612886179
3.494608372567985 -2.485843627101914 -0.015617316495185
3.496333009488003 -2.490342993911315 -0.021224541267985
3.498049730399079 -2.494848528151299 -0.026810224825876
3.499758514328816 -2.499360213036236 -0.032374304916070
3.501459340355209 -2.503878031678993 -0.037916719413149
3.503152187607148 -2.508401967091010 -0.043437406320587
3.504837035264957 -2.512932002182398 -0.048936303772165
4.503875405668762 6.496921776895942 0.034482355897998
4.507525122202182 6.494015528728363 0.023662022912299
4.511174976529407 6.491102079018825 0.012840169440904
4.514824957119053 6.488181415729436 0.002016826343705
3.491755732908028 -2.478459632711211 0.010469683172042
3.493491631840669 -2.482944400100295 0.004836798634642
3.495219664887197 -2.487435350119526 -0.000774717381774
3.496939811055544 -2.491932466199517 -0.006364802664862
3.498652049402990 -2.496435731669637 -0.011933395126580
3.500356359036674 -2.500945129758113 -0.017480432804603
3.502052719114110 -2.505460643592099 -0.023005853863813
3.503741108843694 -2.509982256197751 -0.028509596597761
3.505421507485225 -2.514509950500313 -0.033991599430142
4.511199548279723 6.491082440852769 0.034560621161912
4.514845939242345 6.488164605526801 0.023758747442647
4.518492444597037 6.485239558721437 0.012955415971401
3.492373817992595 -2.480053447204336 0.025254327476508
3.494105221740112 -2.484535997935021 0.019638609665688
3.495828767634896 -2.489024713286808 0.014044212661761
3.497544434764130 -2.493519576703405 0.008471198387754
3.499252202264326 -2.498020571527718 0.002919628642591
3.500952049321846 -2.502527681001928 -0.002610434900351
3.502643955173407 -2.507040888267562 -0.008118930694731
3.504327899106581 -2.511560176365578 -0.013605797322679
3.506003860460326 -2.516085528236455 -0.019070973496248
3.507671818625475 -2.520616926720274 -0.024514398058904
