ply
format ascii 1.0
element vertex 851
property double x
property double y
property double z
end_header
-2.503675489582697 -2.496943132460637 0.925618241180088
-2.501469484255409 -2.498774532789306 0.911378608005054
-2.499263687282558 -2.500615710219759 0.897142881643418
-2.497058135015171 -2.502466698544525 0.882911313209746
-2.494251957456279 -3.506955369102339 1.122828724401045
-2.492302447651546 -3.509346839688347 1.110443785467681
-2.490357226264782 -3.511749783310041 1.098090398701838
-2.488416357847233 -3.514164217232013 1.085768999021195
-2.516947380981755 -2.486131318135314 1.039458384433798
-2.514745551096274 -2.487900851132937 1.025261082273710
-2.512543717208018 -2.489679916994882 1.011066192352453
-2.510341913642397 -2.491468549386164 0.996873951669129
-2.508140175019024 -2.493266781962136 0.982684599177891
-2.505938536253077 -2.495074648366620 0.968498375796473
-2.503737032556642 -2.496892182230038 0.954315524414729
-2.501535699440071 -2.498719417167491 0.940136289903064
-2.499334572713309 -2.500556386776829 0.925960919120876
-2.497133688487236 -2.502403124636698 0.911789660924924
-2.494933083174988 -2.504259664304565 0.897622766177627
-2.492732793493278 -2.506126039314708 0.883460487755352
-2.514783550277057 -2.487870231895857 1.053534593057029
-2.512586375124761 -2.489645358797324 1.039399900216961
-2.510389229501823 -2.491430011136941 1.025267824852435
-2.508192147802580 -2.493224222357086 1.011138603791498
-2.505995164714398 -2.495028025888751 0.997012475804656
-2.503798315219024 -2.496841455149679 0.982889681613262
-2.501601634593915 -2.498664543542469 0.968770463897884
-2.499405158413562 -2.500497324452673 0.954655067306612
-2.497208922550807 -2.502339831246859 0.940543738463338
-2.495012963178157 -2.504192097270655 0.926436725975938
-2.492817316769094 -2.506054155846764 0.912334280444491
-2.490622020099369 -2.507926040272969 0.898236654469333
-2.512628852909480 -2.489610950105793 1.067612791445479
-2.510436345577275 -2.491391640038682 1.053540501090966
-2.508243901161483 -2.493181847813843 1.039471031528272
-2.506051554123645 -2.494981606651226 1.025404619404188
-2.503859339217168 -2.496790949757681 1.011341503295375
-2.501667291488649 -2.498609910325097 0.997281923716620
-2.499475446279177 -2.500438521528510 0.983226123129057
-2.497283839225644 -2.502276816524186 0.969174345948327
-2.495092506262045 -2.504124828447694 0.955126838552682
-2.492901483620765 -2.505982590411941 0.941083849291065
-2.490710807833874 -2.507850135505185 0.927045628491119
-2.488520515734392 -2.509727496789040 0.913012428467132
-2.510483263131081 -2.491353435006694 1.081692754598810
-2.508295436481943 -2.493139657128531 1.067682659792273
-2.506107705990748 -2.494935389328690 1.053675587184043
-2.503920106184545 -2.496740664604902 1.039671773229576
-2.501732671881077 -2.498555515940110 1.025671456301634
-2.499545438190070 -2.500379976300596 1.011674876698421
-2.497358440514531 -2.502214078634093 0.997682276651622
-2.495171714552026 -2.504057855867864 0.983693900334449
-2.492985296295971 -2.505911340906771 0.969709993869556
-2.490799222036889 -2.507774566631308 0.955730805337016
-2.488613528363693 -2.509647565895622 0.941756584782136
-2.486428252164925 -2.511530371525500 0.927787584223286
-2.508346755138521 -2.493097649107691 1.095774259374833
-2.506163621812948 -2.494889372607286 1.081826153087152
-2.503980617740901 -2.496690598254795 1.067881268505095
-2.501797777513254 -2.498501358825961 1.053939841882859
-2.499615136010383 -2.500321687080066 1.040002111379418
-2.497432728403447 -2.502151615758041 1.026068317066505
-2.495250590155658 -2.503991177580593 1.012138700936507
-2.493068757023547 -2.505840405246273 0.998213506910356
-2.490887265058228 -2.507699331429545 0.984292980845323
-2.488706150606639 -2.509567988778814 0.970377370542809
-2.486525450312800 -2.511446409914453 0.956466925756042
-2.484345201119039 -2.513334627426786 0.942561898197746
-2.504040875492406 -2.496640749283269 1.095970759602888
-2.501862610112634 -2.498447437434683 1.082087854049212
-2.499684541588637 -2.500263652192762 1.068208603863110
-2.497506704861742 -2.502089426093375 1.054333246980015
-2.495329135162852 -2.503924791652386 1.040462023235444
-2.493151868013690 -2.505769781363756 1.026595174372787
-2.490974939228048 -2.507624427697632 1.012732944051010
-2.488798384913028 -2.509488763098393 0.998875577852339
-2.486622241470269 -2.511362819982701 0.985023323289882
-2.484446545597183 -2.513246630737503 0.971176429815180
-2.482271334288159 -2.515140227718024 0.957335148825739
-2.519884694853197 -1.487500610505601 0.979149619574315
-2.517643548580059 -1.488884152658725 0.964779043021533
-2.515400639267113 -1.490275140730923 0.950398726557433
-2.513155982812986 -1.491673605289607 0.936008782066988
-2.510909595293705 -1.493079576980693 0.921609322618957
-2.508661492963933 -1.494493086528187 0.907200462473907
-2.501927171392237 -2.498393750231728 1.110116259819067
-2.499753656757909 -2.500205869979089 1.096295124237757
-2.497580371842318 -2.502027507853145 1.082477839544259
-2.495407351646074 -2.503858696166628 1.068664643440841
-2.493234631458142 -2.505699467210611 1.054855775517233
-2.491062246857070 -2.507549853252620 1.041051477258246
-2.488890233712225 -2.509409886534701 1.027251992051360
-2.486718628185000 -2.511279599271492 1.013457565194243
-2.484547466730038 -2.513159023648252 0.999668443902222
-2.482376786096432 -2.515048191818867 0.985884877315708
-2.519412619678854 -1.487791513240388 1.004973400000330
-2.517175785937358 -1.489173719914051 0.990661463922946
-2.514937199804124 -1.490563347767649 0.976339865686478
-2.512696877114821 -1.491960427193616 0.962008716438634
-2.510454833881294 -1.493364988662148 0.947668128499987
-2.508211086292784 -1.494777062720803 0.933318215371879
-2.505965650717160 -1.496196679994082 0.918959091744370
-2.503718543702151 -1.497623871183014 0.904590873504216
-2.497653731281788 -2.501965859265936 1.110502861346804
-2.495485241660510 -2.503792889223407 1.096747331166074
-2.493317049530387 -2.505629460756122 1.082996082976297
-2.491149190236775 -2.507475605930661 1.069249356111979
-2.488981699413382 -2.509331356788420 1.055507391789932
-2.486814612983464 -2.511196745343685 1.041770433116755
-2.484647967161030 -2.513071803581687 1.028038725096195
-2.482481798452032 -2.514956563456644 1.014312514636471
-2.518942434789645 -1.488081530318967 1.030701922947355
-2.516709897821942 -1.489462401936899 1.016448274414411
-2.514475619031097 -1.490850670114036 1.002185040692173
-2.512239614190091 -1.492246365069137 0.987912332196771
-2.510001899246873 -1.493649517097997 0.973630260506368
-2.507762490325557 -1.495060156573042 0.959338938369000
-2.505521403727648 -1.496478313942923 0.945038479710407
-2.503278655933257 -1.497904019732091 0.930728999641930
-2.501034263602330 -1.499337304540369 0.916410614468406
-2.498788243575884 -1.500778199042508 0.902083441696104
-2.491235771639599 -2.507401683586806 1.097327349668594
-2.489072784405638 -2.509253171580357 1.083642549098591
-2.486910198371163 -2.511114255783506 1.069962702054676
-2.484748049511654 -2.512984967983111 1.056288051353315
-2.005556408112910 -3.990103382027050 -0.137566620197583
-2.003728608175334 -3.993328360195101 -0.148727296417202
-1.993783864913390 -4.515963564018223 -0.086719932048685
-1.992439387000785 -4.519537532649768 -0.094637394502699
-2.516245873148105 -1.489750202517599 1.042139997334856
-2.514015885944855 -1.491137111581567 1.027934777209006
-2.511784183118871 -1.492531422748080 1.013720157780612
-2.509550780554481 -1.493933166139832 0.999496249891186
-2.507315694310969 -1.495342371955430 0.985263165541305
-2.505078940623775 -1.496759070468988 0.971021017898385
-2.502840535905711 -1.498183292029707 0.956769921304443
-2.500600496748171 -1.499615067061451 0.942509991283937
-2.498358839922351 -1.501054426062300 0.928241344551592
-2.496115582380473 -1.502501399604111 0.913964099020266
-2.010147580766292 -3.982129975460238 -0.080688137797664
-2.008300039546900 -3.985317033902514 -0.091965142808944
-2.006461870084765 -3.988516612057338 -0.103178019364448
-2.004633156466475 -3.991728691874971 -0.114326223557449
-2.002813982840348 -3.994953254621389 -0.125409211243861
-2.001004433410420 -3.998190280874667 -0.136426438082444
-1.999204592430342 -4.001439750521402 -0.147377359575356
-1.997414544197239 -4.004701642753187 -0.158261431109060
-1.994647213808197 -4.513692247154059 -0.053428519186776
-1.993297130943658 -4.517252183941852 -0.061371962255687
-1.991960202618690 -4.520822425259643 -0.069227147017589
-2.513557989627818 -1.491422675962193 1.053589597084168
-2.511330573066280 -1.492815604042502 1.039432717814754
-2.509101467052649 -1.494215939619083 1.025266624065444
-2.506870687581665 -1.495623712718021 1.011091427095179
-2.504638250823009 -1.497038953440198 0.996907239318963
-2.502404173122506 -1.498461691960878 0.982714174315555
-2.500168471003319 -1.499891958529284 0.968512346835196
-2.497931161167161 -1.501329783468158 0.954301872807355
-2.495692260495508 -1.502775197173320 0.940082869348503
-2.493451786050811 -1.504228230113205 0.925855454769916
-2.491209755077724 -1.505688912828404 0.911619748585503
-2.011053079101305 -3.980578351107860 -0.046475487446520
-2.009204828421562 -3.983752672144879 -0.057738363288463
-2.007365869583116 -3.986939469522739 -0.068937796594871
-2.005536286117521 -3.990138725636740 -0.080073248154660
-2.003716161620478 -3.993350422205344 -0.091144178501749
-2.001905579745904 -3.996574540266575 -0.102150047954535
-2.000104624199929 -3.999811060174461 -0.113090316655787
-1.998313378734843 -4.003059961595520 -0.123964444612849
-1.996531927142982 -4.006321223505295 -0.134771891738261
-1.994760353250556 -4.009594824184942 -0.145512117890744
-1.996880852296785 -4.507898946792278 -0.012202170863503
-1.995512274352814 -4.511434558919139 -0.020257774118075
-1.994156674840059 -4.514980526142928 -0.028226459656363
-1.992814128017542 -4.518536791773136 -0.036107757966250
-1.991484707796063 -4.522103298368723 -0.043901201981112
-2.510878773281660 -1.493098912744716 1.065050533143123
-2.508653948073576 -1.494497841347125 1.050941906632341
-2.506427459553404 -1.495904182690510 1.036824249401921
-2.504199323825368 -1.497317966703814 1.022697673120342
-2.501969557168610 -1.498739223389667 1.008562290609097
-2.499738176038391 -1.500167982823960 0.994418215850329
-2.497505197067274 -1.501604275155410 0.980265563994484
-2.495270637066331 -1.503048130605123 0.966104451368003
-2.493034513026346 -1.504499579466132 0.951934995481022
-2.490796842119022 -1.505958652102944 0.937757315035115
-2.488557641698198 -1.507425378951060 0.923571529931058
-2.011957015771259 -3.979036129488824 -0.012410959809508
-2.010108097271631 -3.982197787178839 -0.023659448559565
-2.008268391464648 -3.985371877893369 -0.034845172610782
-2.006437981330281 -3.988558384465447 -0.045967597407508
-2.004616949914994 -3.991757289058635 -0.057026188121960
-2.002805380325894 -3.994968573163443 -0.068020409693128
-2.001003355724829 -3.998192217593767 -0.078949726865840
-1.999210959322419 -4.001428202483413 -0.089813604230427
-1.997428274372037 -4.004676507282624 -0.100611506262532
-1.995655384163724 -4.007937110754688 -0.111342897363447
-1.993892372018067 -4.011209990972592 -0.122007241900767
-1.992139321279984 -4.014495125315700 -0.132604004249343
-1.997752890472492 -4.505668690881321 0.020871835027067
-1.996378983953838 -4.509190403091696 0.012792575477288
-1.995017955046619 -4.512722462957010 0.004799373738151
-1.993669877764987 -4.516264814612825 -0.003107303055114
-1.992334825782774 -4.519817401449827 -0.010926990153937
-1.991012872425603 -4.523380166114690 -0.018659225247309
-2.508208213032337 -1.494778875115379 1.076522617421141
-2.505985999724268 -1.496183785682338 1.062462155031963
-2.503762149212625 -1.497596114086553 1.048392844622789
-2.501536677710190 -1.499015890159305 1.034314798263782
-2.499309601604629 -1.500443143804449 1.020228129175054
-2.497080937459689 -1.501877904997984 1.006132951734212
-2.494850702016385 -1.503320203787611 0.992029381483962
-2.492618912194181 -1.504770070292285 0.977917535139731
-2.490385585092201 -1.506227534701750 0.963797530597302
-2.488150737990424 -1.507692627276077 0.949669486940490
-2.485914388350892 -1.509165378345172 0.935533524448841
-2.011009832002471 -3.980652303673934 0.010272383679765
-2.009169420997278 -3.983813761352921 -0.000899371363256
-2.007338226727183 -3.986987592062112 -0.012008501624232
-2.005516331692793 -3.990173778402903 -0.023054476874282
-2.003703818457718 -3.993372302310928 -0.034036766634013
-2.001900769642758 -3.996583145052527 -0.044954840212046
-2.000107267920033 -3.999806287221265 -0.055808166743897
-1.998323396007048 -4.003041708734492 -0.066596215231207
-1.996549236660702 -4.006289388829952 -0.077318454581331
-1.994784872671248 -4.009549306062429 -0.087974353647270
-1.993030386856184 -4.012821438300469 -0.098563381267999
-1.991285862054100 -4.016105762723123 -0.109085006309096
-2.000018283872352 -4.499954328370055 0.062011966880587
-1.998626430727797 -4.503451809209690 0.053825017269216
-1.997247281066818 -4.506959684099892 0.045722807265453
-1.995880908980530 -4.510477898731842 0.037705803893280
-1.994527388235297 -4.514006398056751 0.029774471898247
-1.993186792264939 -4.517545126286604 0.021929273697014
-1.991859194162921 -4.521094026894945 0.014170669326979
-1.990544666674546 -4.524653042617782 0.006499116395977
-2.505546297673866 -1.496462525482807 1.088005662788714
-2.503326716647537 -1.497873399394697 1.073993275352782
-2.501105524493814 -1.499291696092303 1.059972221537673
-2.498882737533103 -1.500717445308727 1.045942613807459
-2.496658372260663 -1.502150676848541 1.031904565773042
-2.494432445347783 -1.503591420587342 1.017858192199639
-2.492204973642969 -1.505039706471313 1.003803609014326
-2.489975974173123 -1.506495564516750 0.989740933313584
-2.487745464144738 -1.507959024809615 0.975670283370884
-2.485513460945091 -1.509430117505042 0.961591778644286
-2.483279982143437 -1.510908872826859 0.947505539784072
-2.012084959648671 -3.483270847584452 -0.071420769737607
-2.009975965707393 -3.486138669714240 -0.084375846603725
-2.007873258562458 -3.489019293817452 -0.097287283966751
-2.005776914479818 -3.491912727444987 -0.110154587177241
-2.003687009994305 -3.494818977671002 -0.122977259960209
-2.001603621906700 -3.497738051088269 -0.135754804435233
-1.999526827280724 -3.500669953803526 -0.148486721136854
-2.010068943852206 -3.982265044791566 0.032900379942061
-2.008237007343193 -3.985426272836655 0.021804805749668
-2.006414291344644 -3.988599814171010 0.010771715453070
-2.004600877879984 -3.991785651168156 -0.000198365011296
-2.002796849032211 -3.994983765539554 -0.011104909477679
-2.001002286938116 -3.998194138331139 -0.021947391589247
-1.999217273782430 -4.001416749919877 -0.032725284836615
-1.997441891791937 -4.004651580010397 -0.043438062596786
-1.995676223229510 -4.007898607631657 -0.054085198172417
-1.993920350388102 -4.011157811133649 -0.064666164831446
-1.992174355584684 -4.014429168184176 -0.075180435847047
-1.990438321154113 -4.017712655765657 -0.085627484537959
-2.002307769667075 -4.494291214216931 0.103157834124661
-2.000898326449806 -4.497764491758209 0.094866035743170
-1.999501413573383 -4.501248206950780 0.086657670152313
-1.998117105180272 -4.504742307020273 0.078533204091492
-1.996745475103446 -4.508246738457517 0.070493102127205
-1.995386596858684 -4.511761447019099 0.062537826603357
-1.994040543636858 -4.515286377727981 0.054667837591616
-1.992707388296215 -4.518821474874248 0.046883592841687
-1.991387203354640 -4.522366682015943 0.039185547731502
-2.521665308846032 -0.488943239315795 0.984769058518641
-2.519451183467477 -0.490053130316801 0.970751024754838
-2.517234576812999 -0.491168810953767 0.956718343614647
-2.515015495045624 -0.492290305622496 0.942671060538649
-2.512793944425614 -0.493417638804635 0.928609221614514
-2.500676087345694 -1.499566644990571 1.085535080902296
-2.498457573733963 -1.500990891153892 1.071562192932419
-2.496237491464949 -1.502422594538594 1.057580932017473
-2.494015857140562 -1.503861784849463 1.043591412151376
-2.491792687538691 -1.505308491861195 1.029593748479165
-2.489567999614383 -1.506762745417952 1.015588057304436
-2.487341810501014 -1.508224575432891 1.001574456096869
-2.485114137511478 -1.509694011887692 0.987553063499710
-2.482884998139371 -1.511171084832071 0.973523999337330
-2.012860264446887 -3.482221915091470 -0.037701304966192
-2.010753324457450 -3.485079133240489 -0.050619949636753
-2.008652617444649 -3.487949097797690 -0.063495424299616
-2.006558219104650 -3.490831816441547 -0.076327239049552
-2.004470205401362 -3.493727296379413 -0.089114902364946
-2.002388652563540 -3.496635544342925 -0.101857921127489
-2.000313637081856 -3.499556566583405 -0.114555800642190
-1.998245235705885 -3.502490368867272 -0.127208044657859
-1.996183525441050 -3.505436956471447 -0.139814155387858
-2.009134308617877 -3.983874351900882 0.055473088105274
-2.007310813675116 -3.987035321000059 0.044453146025011
-2.005496542754387 -3.990208543900750 0.033495546012046
-2.003691577404133 -3.993394002752336 0.022600809744419
-2.001895999228980 -3.996591679045829 0.011769459108737
-2.000109889883996 -3.999801553610454 0.001002016162227
-1.998333331068879 -4.003023606610284 -0.009700996905534
-1.996566404522081 -4.006257817540916 -0.020339057811206
-1.994809192014897 -4.009504165226193 -0.030911644216623
-1.993061775345476 -4.012762627814983 -0.041418233768110
-1.991324236332807 -4.016033182777993 -0.051858304136127
-1.989596656810612 -4.019315806904648 -0.062231333055223
-2.003193992880560 -4.492128192418217 0.135910910653116
-2.001779670510756 -4.495587777547546 0.127599199828378
-2.000377780525737 -4.499057789930370 0.119370092810058
-1.998988396799940 -4.502538177576082 0.111224053815857
-1.997611592905640 -4.506028887765006 0.103161544944799
-1.996247442105346 -4.509529867048899 0.095183026128184
-1.994896017344167 -4.513041061251512 0.087288955080553
-1.993557391242173 -4.516562415469267 0.079479787250543
-1.992231636086757 -4.520093874072004 0.071755975771912
-2.520751731644293 -0.489400645746540 1.008410004525212
-2.518541136222872 -0.490510631711413 0.994444461182477
-2.516328072222484 -0.491626393508137 0.980464375310356
-2.514112545807732 -0.492747955417359 0.966469792207770
-2.511894563239982 -0.493875341804898 0.952460757815970
-2.509674130878135 -0.495008577121834 0.938437318723565
-2.507451255179413 -0.496147685904581 0.924399522171557
-2.495818285145046 -1.502693661878638 1.083162572568380
-2.493600927551921 -1.504131300397836 1.069229566143306
-2.491382044123914 -1.505576430298382 1.055288481049679
-2.489161651744572 -1.507029081253584 1.041339432804595
-2.486939767474524 -1.508489283005098 1.027382538080419
-2.484716408552665 -1.509957065362453 1.013417914712200
-2.482491592397319 -1.511432458202567 0.999445681705123
-2.480265336607427 -1.512915491469264 0.985465959241986
-2.013633209732957 -3.481179004919209 -0.004133483521787
-2.011528334810114 -3.484025683040158 -0.017015740894460
-2.009429639584081 -3.486885052300936 -0.029855292061937
-2.007337199186342 -3.489757120504493 -0.042651651810748
-2.005251089014978 -3.492641894988211 -0.055404333320237
-2.003171384731817 -3.495539382619344 -0.068112848181819
-2.001098162259556 -3.498449589790480 -0.080776706418684
-1.999031497778803 -3.501372522414989 -0.093395416505794
-1.996971467725071 -3.504308185922473 -0.105968485390278
-1.994918148785719 -3.507256585254238 -0.118495418512245
-1.992871617896826 -3.510217724858750 -0.130975719825878
-2.008205883894663 -3.985480224224457 0.077990568932694
-2.006390797657654 -3.988640905373919 0.067045714315083
-2.004584938693717 -3.991813781090130 0.056163059020681
-2.002788388078501 -3.994998833302008 0.045343120503048
-2.001001226940509 -3.998196043283786 0.034586416403921
-1.999223536455388 -4.001405391651657 0.023893464515539
-1.997455397840136 -4.004626858360444 0.013264782742794
-1.995696892347278 -4.007860422700360 0.002700889064838
-1.993948101258969 -4.011106063293769 -0.007797698503473
-1.992209105881060 -4.014363758092026 -0.018230461950598
-1.990479987537095 -4.017633484372355 -0.028596883307612
-1.988760827562262 -4.020915218734775 -0.038896444687822
-1.999861097433258 -4.500347202135545 0.143795649154108
-1.998479202890376 -4.503824252924563 0.135711413875112
-1.997109863469744 -4.507311564328619 0.127710340734324
-1.995753151868001 -4.510809082962167 0.119792885077872
-1.994409140464207 -4.514316754717863 0.111959500041004
-2.519841480955434 -0.489857153875080 1.031975912948214
-2.517634406212867 -0.490967228773830 1.018062576817334
-2.515424875510952 -0.492083065738291 1.004134802091107
-2.513212895015663 -0.493204688934625 0.990192633926450
-2.510998470989263 -0.494332122613503 0.976236118117882
-2.508781609791058 -0.495465391110193 0.962265301102513
-2.506562317878192 -0.496604518844631 0.948280229965039
-2.504340601806421 -0.497749530321501 0.934280952442760
-2.502116468230891 -0.498900450130303 0.920267516930662
-2.490973033717049 -1.505843525597914 1.080888330416996
-2.488756920967539 -1.507294575850223 1.066995586197985
-2.486539325555210 -1.508753151363541 1.053095058406088
-2.484320264645330 -1.510219281776537 1.039186864074694
-2.482099755581348 -1.511692996794634 1.025271121396481
-2.479877815886051 -1.513174326189524 1.011347949730788
-2.012301002270024 -3.482978270639377 0.016437724531127
-2.010204330214989 -3.485827108349430 0.003634055806529
-2.008113859682390 -3.488688590150921 -0.009126884327171
-2.006029665509520 -3.491562723508142 -0.021844613698462
-2.003951822796328 -3.494449515420786 -0.034518648556768
-2.001880406902567 -3.497348972419439 -0.047148503591726
-1.999815493444898 -3.500261100561089 -0.059733691952809
-1.997757158293943 -3.503185905424612 -0.072273725269352
-1.995705477571261 -3.506123392106291 -0.084768113670929
-1.993660527646293 -3.509073565215312 -0.097216365808039
-1.991622385133228 -3.512036428869285 -0.109617988873266
-2.007283627573635 -3.987082661145601 0.100452884791303
-2.005476917252380 -3.990243025647133 0.089582577047010
-2.003679437197937 -3.993415525733410 0.078774324992572
-2.001891268015359 -3.996600143116533 0.068028641890690
-2.000112490359277 -3.999796858857590 0.057346041172260
-1.998343184928208 -4.003005653363353 0.046727036399030
-1.996583432458801 -4.006226506383019 0.036172141225989
-1.994833313720043 -4.009459397005012 0.025681869363364
-1.993092909507403 -4.012704303653806 0.015256734538289
-1.991362300636919 -4.015961204086823 0.004897250456208
-1.989641567939243 -4.019230075391364 -0.005396069238186
-1.987930792253617 -4.022510893981591 -0.015622711000166
-2.516730976035631 -0.491422922759174 1.041605716301417
-2.514524969302533 -0.492538828951760 1.027729970567437
-2.512316525320060 -0.493660507534192 1.013839934282974
-2.510105650351162 -0.494787982642667 0.999935653095531
-2.507892350755361 -0.495921278497319 0.986017173290466
-2.505676632989523 -0.497060419402292 0.972084541795937
-2.503458503608636 -0.498205429745810 0.958137806187891
-2.501237969266579 -0.499356334000256 0.944177014695068
-2.499015036716912 -0.500513156722227 0.930202216204046
-2.496789712813674 -0.501675922552605 0.916213460264296
-2.013824973094743 -2.984240447966863 -0.059420918743976
-2.011540730072239 -2.986801995020476 -0.073466731003893
-2.009260207820364 -2.989375846388126 -0.087485890478855
-2.006983469382697 -2.991962025281865 -0.101477988005359
-2.004710578144718 -2.994560554638330 -0.115442612292837
-2.002441597833180 -2.997171457114715 -0.129379349928559
-2.013071332405254 -3.481936848046078 0.049741384512222
-2.010976694639570 -3.484775217451821 0.036973555378547
-2.008888205622849 -3.487626176388922 0.024247997596872
-2.006805939636604 -3.490489732445533 0.011565188740722
-2.004729971223889 -3.493365892750654 -0.001074392046193
-2.002660375186502 -3.496254663969679 -0.013670264068867
-2.000597226582137 -3.499156052299932 -0.026221945100275
-1.998540600721481 -3.502070063466221 -0.038728951400975
-1.996490573165258 -3.504996702716377 -0.051190797739079
-1.994447219721210 -3.507935974816818 -0.063606997410595
-1.992410616441024 -3.510887884048093 -0.075977062260125
-1.990380839617209 -3.513852434200448 -0.088300502701923
-2.004569130715921 -3.991841681664093 0.112063802191581
-2.002779996598425 -3.995013777977722 0.101329415955822
-2.001000175624039 -3.998197932645498 0.090657450018388
-1.999229747975770 -4.001394126518954 0.080048413633167
-1.997468793877301 -4.004602339799024 0.069502816165604
-1.995717393587281 -4.007822552032849 0.059021167055405
-1.993975627393558 -4.011054742110616 0.048603975778819
-1.992243575607354 -4.014298888262465 0.038251751810665
-1.990521318557392 -4.017554968055411 0.027965004586002
-1.988808936583965 -4.020822958390352 0.017744243461446
-2.513628336338604 -0.492993684469262 1.051250225331208
-2.511423419488814 -0.494115412588700 1.037412039830423
-2.509216084120641 -0.495242923316903 1.023559711272354
-2.507006336593626 -0.496376240759545 1.009693285790365
-2.504794183364164 -0.497515389105656 0.995812810155889
-2.502579630986283 -0.498660392627693 0.981918331783355
-2.500362686112405 -0.499811275681606 0.968009898735150
-2.498143355494136 -0.500968062706906 0.954087559726596
-2.495921645983041 -0.502130778226722 0.940151364130982
-2.493697564531436 -0.503299446847864 0.926201361984602
-2.014400139294665 -2.983598039878737 -0.026663983065655
-2.012119633879412 -2.986151257414690 -0.040659628376357
-2.009842818183404 -2.988716723148058 -0.054628903055931
-2.007569754778100 -2.991294460218008 -0.068571401895305
-2.005300506574228 -2.993884491491562 -0.082486717578803
-2.003035136821171 -2.996486839559599 -0.096374440688929
-2.000773709106327 -2.999101526732860 -0.110234159711410
-1.998516287354421 -3.001728575037916 -0.124065461040512
-1.996262935826781 -3.004368006213125 -0.137867928984552
-2.011746738225752 -3.483729331597493 0.070164135792401
-2.009660242108038 -3.486569830711873 0.057473921271027
-2.007579916222709 -3.489422872796531 0.044825999401274
-2.005505834560874 -3.492288465106710 0.032220844770496
-2.003438071371312 -3.495166614439468 0.019658933508791
-2.001376701157672 -3.498057327129257 0.007140743270152
-1.999321798675634 -3.500960609043522 -0.005333246786818
-1.997273438929991 -3.503876465578295 -0.017762556018501
-1.995231697171681 -3.506804901653779 -0.030146702316146
-1.993196648894780 -3.509745921709962 -0.042485202126231
-1.991168369833421 -3.512699529702207 -0.054777570471097
-1.989146935958660 -3.515665729096871 -0.067023320969953
-1.987132423475295 -3.518644522866901 -0.079221965860232
-2.001886575520696 -3.996608538120488 0.123828405422513
-2.000115069608968 -3.999792202486155 0.113229622451785
-1.998352958576494 -4.002987847164617 0.102693615430795
-1.996600322174430 -4.006195452154514 0.092220889562669
-1.994857240185769 -4.009414996804452 0.081811950106176
-1.993123792419614 -4.012646459809908 0.071467302338353
-1.991400058705383 -4.015889819210178 0.061187451516780
-1.989686118886972 -4.019145052385368 0.050972902841672
-2.510533560406115 -0.494569405483247 1.060909295100630
-2.508329755208959 -0.495696946072737 1.047108639134048
-2.506123550244727 -0.496830279384771 1.033293987050837
-2.503914951969155 -0.497969429493942 1.019465385465519
-2.501703966935123 -0.499114420557618 1.005622881630869
-2.499490601793414 -0.500265276816010 0.991766523442810
-2.497274863293491 -0.501422022592230 0.977896359445363
-2.495056758284273 -0.502584682292356 0.964012438835607
-2.492836293714916 -0.503753280405486 0.950114811468679
-2.490613476635596 -0.504927841503792 0.936203527862791
-2.014973189810560 -2.982959022600740 0.005946941403871
-2.012696414494382 -2.985503958664586 -0.007998768131440
-2.010423298154201 -2.988061087170884 -0.021918385815494
-2.008153902893871 -2.990630431185699 -0.035811510347781
-2.005888291153894 -2.993212013506161 -0.049677738341412
-2.003626525710839 -2.995805856656527 -0.063516664327817
-2.001368669676710 -2.998411982884224 -0.077327880761660
-1.999114786498279 -3.001030414155855 -0.091110978025956
-1.996864939956374 -3.003661172153226 -0.104865544437543
-1.994619194165145 -3.006304278269301 -0.118591166252690
-2.008351600166865 -3.488362096041441 0.077938736901371
-2.006279417430819 -3.491217183475356 0.065367978577838
-2.004213499798794 -3.494084774320189 0.052840003815111
-2.002153921225288 -3.496964875044374 0.040355285743938
-2.000100755915837 -3.499857491654769 0.027914298991862
-1.998054078324167 -3.502762629692301 0.015517519663984
-1.996013963149270 -3.505680294227595 0.003165425323444
-1.993980485332448 -3.508610489856628 -0.009141505028536
-1.991953720054283 -3.511553220696363 -0.021402790972864
-1.989933742731561 -3.514508490380408 -0.033617950693247
-1.987920629014140 -3.517476302054668 -0.045786500997103
-1.999235908967729 -4.001382953380909 0.135745238181092
-1.997482081242018 -4.004578021833848 0.125281729604197
-1.995737728986285 -4.007784991765552 0.114881343702421
-1.994002931510216 -4.011003842329578 0.104544581587752
-1.992277768146560 -4.014234552030169 0.094271944372455
-1.990562318245376 -4.017477098719239 0.084063933131804
-2.507446646642725 -0.496150052358436 1.070582781142600
-2.505243974762884 -0.497283395872198 1.056819623480362
-2.503038921886875 -0.498422542117224 1.043042616088773
-2.500831494566242 -0.499567515136470 1.029251806058823
-2.498621699449949 -0.500718339055089 1.015447241119898
-2.496409543285138 -0.501875038080486 1.001628969644664
-2.494195032917902 -0.503037636502383 0.987797040653996
-2.491978175294064 -0.504206158692865 0.973951503821909
-2.489758977459954 -0.505380629106441 0.960092409480538
-2.487537446563191 -0.506561072280083 0.946219808625144
-2.012353875464793 -2.487989931083369 -0.092866423087525
-2.009957060127887 -2.490292287161718 -0.107602650287204
-2.013271082427354 -2.984860072621987 0.024516798437723
-2.011001658208665 -2.987408911921712 0.010646610902839
-2.008735924167931 -2.989969911260445 -0.003197362795845
-2.006473942279913 -2.992543093365176 -0.017014723154781
-2.004215774852868 -2.995128480693240 -0.030805068608645
-2.001961484527927 -2.997726095428399 -0.044567995535115
-1.999711134278456 -3.000335959476918 -0.058303098259913
-1.997464787409351 -3.002958094463596 -0.072009969062061
-1.995222507556323 -3.005592521727807 -0.085688198179417
-1.992984358685132 -3.008239262319497 -0.099337373814424
-1.990750405090773 -3.010898336995185 -0.112957082140152
-2.007050724532057 -3.490151999325984 0.098367919373796
-2.004986664890174 -3.493009094590657 0.085873854887191
-2.002928890922886 -3.495878646532452 0.073422588320812
-2.000877476290425 -3.498760661294477 0.061014589820332
-1.998832494900260 -3.501655144559314 0.048650331001481
-1.996794020904246 -3.504562101544703 0.036330284930855
-1.994762128695708 -3.507481536999225 0.024054926106406
-1.992736892906458 -3.510413455197992 0.011824730437535
-1.990718388403786 -3.513357859938335 -0.000359824775094
-1.988706690287366 -3.516314754535508 -0.012498260860145
-1.986701873886128 -3.519284141818386 -0.024590097796521
-2.521340955835049 0.509178560418792 0.963512713431173
-2.504367593316716 -0.497735591732060 1.080270539461347
-2.502166076314085 -0.498874728536171 1.066544848347148
-2.499962197105097 -0.500019677975287 1.052805453336692
-2.497755962336707 -0.501170464060181 1.039052401992755
-2.495547378753562 -0.502327110883237 1.025285742516633
-2.493336453198760 -0.503489642618508 1.011505523752998
-2.491123192614616 -0.504658083521766 0.997711795194805
-2.488907604043444 -0.505832457930556 0.983904606988207
-2.486689694628326 -0.507012790264238 0.970084009937512
-2.484469471613903 -0.508199105024032 0.956250055510155
-2.017489838496421 -2.483100479433392 -0.031706835992948
-2.015094192964668 -2.485373700947510 -0.046412352536820
-2.012700241784348 -2.487658304150834 -0.061104571797382
-2.010308033872253 -2.489954320200920 -0.075783176203131
-2.007917618479416 -2.492261780133859 -0.090447846087173
-2.005529045191784 -2.494580714861375 -0.105098259683652
-2.003142363930869 -2.496911155167908 -0.119734093124243
-2.013843648132511 -2.984219573394843 0.056888012105118
-2.011577908767867 -2.986760171125636 0.043067028829076
-2.009315828984612 -2.989312873781637 0.029271983400247
-2.007057470296196 -2.991877704019454 0.015503271483718
-2.004802894547007 -2.994454684229215 0.001761290786639
-2.002552163911784 -2.997043836530700 -0.011953558946428
-2.000305340894971 -2.999645182769445 -0.025640875938407
-1.998062488330050 -3.002258744512837 -0.039300256384845
-1.995823669378832 -3.004884543046185 -0.052931294459285
-1.993588947530708 -3.007522599368779 -0.066533582318953
-1.991358386601862 -3.010172934189915 -0.080106710110544
-1.989132050734444 -3.012835567924921 -0.093650265976419
-2.005757571143721 -3.491939526711505 0.118761388173481
-2.003701614470044 -3.494798592566860 0.106343550461858
-2.001651963734102 -3.497670068447729 0.093968523096378
-1.999608692301891 -3.500553960175179 0.081636773251928
-1.997571873782890 -3.503450273110813 0.069348769547090
-1.995541582027192 -3.506359012152492 0.057104982024973
-1.993517891122590 -3.509280181730087 0.044905882133665
-1.991500875391597 -3.512213785801187 0.032751942706469
-1.989490609388421 -3.515159827846858 0.020643637941666
-1.987487167895881 -3.518118310867375 0.008581443382038
-1.985490625922273 -3.521089237377979 -0.003434164106055
-2.522221044257070 0.509549902043646 0.999086384334434
-2.520049931079157 0.508632807140971 0.985532855450331
-2.517876088737184 0.507711110271425 0.971963053311042
-2.515699518564924 0.506784792354943 0.958376990593960
-2.513520221948796 0.505853834238180 0.944774680326274
-2.499096057890579 -0.500470910695007 1.076284169689301
-2.496893373821798 -0.501621653502089 1.062582354226670
-2.494688353096642 -0.502778242721071 1.048867028175821
-2.492481002555037 -0.503940702411026 1.035138240205261
-2.490271329135627 -0.505109056712102 1.021396039626953
-2.488059339876545 -0.506283329845580 1.007640476401173
-2.485845041916171 -0.507463546113909 0.993871601141436
-2.483628442493926 -0.508649729900753 0.980089465119402
-2.481409548951038 -0.509841905671027 0.966294120269848
-2.017825614056008 -2.482782895944544 -0.000196968764435
-2.015434587218571 -2.485049911663556 -0.014844908812725
-2.013045240976644 -2.487328258581317 -0.029479690326130
-2.010657623902818 -2.489617967683447 -0.044100998674236
-2.008271784901120 -2.491919069835494 -0.058708517153116
-2.005887773207699 -2.494231595780063 -0.073301926981739
-2.003505638391453 -2.496555576133938 -0.087880907298517
-2.001125430354674 -2.498891041385164 -0.102445135157953
-1.998747199333648 -2.501238021890108 -0.116994285527428
-2.012152060198192 -2.986114838764657 0.075343801842222
-2.009893627674784 -2.988659292349416 0.061597463032236
-2.007638885494458 -2.991215818684466 0.047877181232417
-2.005387895042138 -2.993784440092460 0.034183350336207
-2.003140718030586 -2.996365178628874 0.020516366255101
-2.000897416499771 -2.998958056078165 0.006876626913826
-1.998658052816223 -3.001563093949902 -0.006735467754607
-1.996422689672335 -3.004180313474883 -0.020319515814198
-1.994191390085635 -3.006809735601243 -0.033875113331445
-1.991964217398016 -3.009451380990517 -0.047401854381054
-1.989741235274930 -3.012105270013716 -0.060899331051941
-1.987522507704546 -3.014771422747364 -0.074367133453461
-2.002424222265466 -3.496585664084568 0.126776989776038
-2.000382674261279 -3.499459027025015 0.114477735282772
-1.998347525224858 -3.502344758925203 0.102221765875065
-1.996318848467781 -3.505242864829028 0.090009547189034
-1.994296717538508 -3.508153349317775 0.077841546259289
-1.992281206219469 -3.511076216505895 0.065718231499482
-1.990272388524070 -3.514011470036784 0.053640072682512
-1.988270338693683 -3.516959113078578 0.041607540920350
-1.986275131194543 -3.519919148319928 0.029621108643619
-2.520931507197208 0.509005606437475 1.020999372420767
-2.518763168117578 0.508087644170773 1.007492069423888
-2.516592111678754 0.507165087284720 0.993968596878857
-2.514418339237310 0.506237916771718 0.980428967544531
-2.512241852202309 0.505306113551363 0.966873194527652
-2.510062652035767 0.504369658470246 0.953301291285830
-2.507880740253122 0.503428532301753 0.939713271630526
-2.493832449824707 -0.503228435323361 1.072373174673691
-2.491628664527346 -0.504390817658580 1.058695540003885
-2.489422568428540 -0.505559080091704 1.045004589061824
-2.487214168562077 -0.506733246728436 1.031300371622040
-2.485003472061480 -0.507913341755016 1.017582938107417
-2.482790486160790 -0.509099389438256 1.003852339594048
-2.480575218195334 -0.510291414125578 0.990108627816157
-2.015773638912410 -2.484727660119815 0.016586768468634
-2.013388880968175 -2.486999783251840 0.002009098716521
-2.011005838226790 -2.489283218237348 -0.012555237929172
-2.008624559248491 -2.491577995772519 -0.027105927693968
-2.006245092922852 -2.493884146431995 -0.041642654747910
-2.003867488469425 -2.496201700666040 -0.056165101202092
-2.001491795438374 -2.498530688797648 -0.070672947105358
-1.999118063711070 -2.500871141019642 -0.085165870441101
-1.996746343500692 -2.503223087391755 -0.099643547124199
-1.994376685352776 -2.505586557837668 -0.114105650998108
-2.008218198114312 -2.990557410837171 0.080107933983393
-2.005970786536334 -2.993117721376312 0.066462038756203
-2.003727157037183 -2.995690094429884 0.052842709563041
-2.001487371196747 -2.998274551720916 0.039250340520605
-1.999251490919017 -3.000871114700780 0.025685327734885
-1.997019578431398 -3.003479804545327 0.012148069296131
-1.994791696284010 -3.006100642151056 -0.001361034726596
-1.992567907348928 -3.008733648131223 -0.014841582290974
-1.990348274819397 -3.011378842811948 -0.028293169387250
-1.988132862209004 -3.014036246228313 -0.041715390044354
-1.985921733350826 -3.016705878120420 -0.055107836336208
-1.997093931253932 -3.504133045033632 0.122769499818363
-1.995073375090487 -3.507032907482617 0.110632598769690
-1.993059383517257 -3.509945101090033 0.098539915218300
-1.991052030011488 -3.512869629658208 0.086491914558760
-1.989051388277709 -3.515806496519640 0.074489063519312
-2.519646216429834 0.508461895570608 1.042851888069354
-2.517480647216930 0.507543073767233 1.029390588987039
-2.515312372391737 0.506619664690141 1.015913223272868
-2.513141393333352 0.505691649403897 1.002419803765277
-2.510967711473212 0.504759008900728 0.988910343648709
-2.508791328295553 0.503821724100330 0.975384856456546
-2.506612245337870 0.502879775849670 0.961843356074087
-2.504430464191388 0.501933144922793 0.948285856741521
-2.502245986501531 0.500981812020630 0.934712373056938
-2.488576894176265 -0.506008155496083 1.068537793361479
-2.486372073814287 -0.507182210463297 1.054884644455500
-2.484164968810384 -0.508362179120296 1.041218374591439
-2.481955586393064 -0.509548085617740 1.027539034650051
-2.479743933891597 -0.510739954186260 1.013846676165271
-2.013731169625720 -2.486672867142224 0.033362665301534
-2.011352684791248 -2.488950060595900 0.018854978363453
-2.008975949547321 -2.491238546428812 0.004360796959995
-2.006601012440135 -2.493538355048793 -0.010119565996613
-2.004227922343123 -2.495849516740706 -0.024585795556593
-2.001856728457570 -2.498172061663604 -0.039037574729258
-1.999487480313217 -2.500506019847856 -0.053474584479901
-1.997120227768854 -2.502851421192254 -0.067896503726716
-1.994755021012870 -2.505208295461096 -0.082303009337877
-1.992391910563800 -2.507576672281244 -0.096693776128775
-2.006551579176932 -2.992454501436311 0.098598277077646
-2.004311491035010 -2.995018556906718 0.085026392790552
-2.002075215041749 -2.997594642285425 0.071481187430705
-1.999842812642955 -3.000182778965219 0.057963053321015
-1.997614345605440 -3.002782988066601 0.044472384749999
-1.995389876016313 -3.005395290433972 0.031009577966549
-1.993169466282252 -3.008019706631795 0.017575031174479
-1.990953179128740 -3.010656256940758 0.004169144526810
-1.988741077599246 -3.013304961353890 -0.009207679880131
-1.986533225054388 -3.015965839572689 -0.022555038012956
-1.984329685171049 -3.018638911003218 -0.035872523907577
-2.524273714667002 5.505823439113093 0.017009163375020
-2.522131448368327 5.505318011305769 0.003633017596344
-2.519986372755705 5.504810272013468 -0.009760311464779
-2.517838484009919 5.504300212732124 -0.023170846004979
-2.516202348758164 0.506999098147040 1.051228646705479
-2.514036851248884 0.506074844655857 1.037797166399818
-2.511868661217911 0.505145992370964 1.024349734510929
-2.509697780118790 0.504212522356913 1.010886364299111
-2.507524209457700 0.503274415606192 0.997407069371696
-2.505347950793930 0.502331653039032 0.983911863686002
-2.503169005740332 0.501384215503216 0.970400761552277
-2.500987375963795 0.500432083773888 0.956873777636696
-2.498803063185709 0.499475238553365 0.943330926964344
-2.496616069182446 0.498513660470940 0.929772224922250
-2.018052394766201 -1.984820136797991 -0.019221757954723
-2.014072114756893 -2.486347499333919 0.064581872058163
-2.011698171483673 -2.488618483596396 0.050130515172881
-2.009325963763405 -2.490900710394697 0.035692524096273
-2.006955539802068 -2.493194209970974 0.021268208855682
-2.004586948130154 -2.495499012445813 0.006857881494944
-2.002220237603292 -2.497815147815424 -0.007538143922371
-1.999855457402837 -2.500142645948797 -0.021919551309783
-1.997492657036456 -2.502481536584847 -0.036286022554859
-1.995131886338694 -2.504831849329524 -0.050637237516345
-1.992773195471502 -2.507193613652904 -0.064972874021341
-1.990416634924771 -2.509566858886264 -0.079292607862708
-1.988062255516820 -2.511951614219119 -0.093596112796526
-2.002660958042604 -2.996918300626109 0.103570082593461
-2.000432027945947 -2.999498059213500 0.090098624647545
-1.998207001098709 -3.002089836122176 0.076654346838710
-1.995985939129348 -3.004693652143999 0.063237641639333
-1.993768903983521 -3.007309527794155 0.049848903458575
-1.991555957923334 -3.009937483307354 0.036488528636783
-1.989347163526553 -3.012577538634005 0.023156915439702
-1.987142583685769 -3.015229713436367 0.009854464052475
-1.984942281607549 -3.017894027084707 -0.003418423426700
-2.521518546415579 5.505173105838792 0.036746204660930
-2.519376982309615 5.504665728259180 0.023403256320781
-2.517232615286279 5.504156037595790 0.010043199998119
-2.515085441549978 5.503644025354159 -0.003333986317941
-2.512935457305692 5.503129683007349 -0.016728324627706
-2.510782658759031 5.502613001995813 -0.030139836920483
-2.512765528736740 0.505530629308506 1.059620659092511
-2.510600123369891 0.504600947751171 1.046218993952735
-2.508432038610608 0.503666655949623 1.032801491995444
-2.506261275986757 0.502727734968831 1.019368166900117
-2.504087837079145 0.501784165801975 1.005919032694299
-2.501911723521987 0.500835929370259 0.992454103756524
-2.499732937003370 0.499883006522720 0.978973394819271
-2.497551479265714 0.498925378036041 0.965476920971942
-2.495367352106252 0.497963024614361 0.951964697663855
-2.493180557377495 0.496995926889093 0.938436740707261
-2.018142066419850 -1.984746169821575 0.011031076109676
-2.015689503747798 -1.986774247331543 -0.003937581021151
-2.013237191634122 -1.988812633281368 -0.018902441894550
-2.010785166703302 -1.990861361235547 -0.033863269216154
-2.012042306132497 -2.488288476178975 0.081272230183075
-2.009674609803087 -2.490564476365730 0.066890113697146
-2.007308682991329 -2.492851699646716 0.052521532067757
-2.004944573887932 -2.495150175979352 0.038166794465464
-2.002582331006041 -2.497459935198093 0.023826212059697
-2.000222003181833 -2.499781007011627 0.009500098021916
-1.997863639575092 -2.502113421000035 -0.004811232471367
-1.995507289669773 -2.504457206611954 -0.019107462235710
-1.993153003274537 -2.506812393161686 -0.033388272075986
-1.990800830523268 -2.509179009826309 -0.047653340783706
-1.988450821875575 -2.511557085642754 -0.061902345134586
-1.986103028117269 -2.513946649504854 -0.076134959886095
-1.998797554770253 -3.001400321066680 0.108694864340765
-1.996579895426194 -3.003995699250139 0.095324065677344
-1.994366230196061 -3.006603083199064 0.081980944506629
-1.992156620882926 -3.009222493101672 0.068665893399762
-1.989951129603210 -3.011853948865183 0.055379306835570
-1.987749818785864 -3.014497470112021 0.042121581194684
-1.985552751171530 -3.017153076175991 0.028893114753432
-2.516628954339540 5.504012256737203 0.043138606535665
-2.514485301262285 5.503500620503372 0.029811716468642
-2.512338847883852 5.502986661124019 0.016467771518383
-2.510189590432825 5.502470370081958 0.003106749869301
-2.509335760381464 0.504056517582038 1.068027815183622
-2.507170467533749 0.503121411668128 1.054655961166443
-2.505002508461018 0.502181684129110 1.041268384813205
-2.502831884765342 0.501237316030803 1.027865100219913
-2.500658598102028 0.500288288367512 1.014446121831627
-2.498482650180098 0.499334582061848 1.001011464445394
-2.496304042762738 0.498376177964536 0.987561143213196
-2.494122777667778 0.497413056854237 0.974095173644916
-2.491938856768152 0.496445199437353 0.960613571611338
-2.489752281992383 0.495472586347855 0.947116353347143
-2.015783726230067 -1.986696138872479 0.026251747075954
-2.013336321954008 -1.988730030396585 0.011346890006422
-2.010889202229703 -1.990774221131545 -0.003553978196546
-2.008442403737257 -1.992828744417437 -0.018450620482757
-2.005995963444791 -1.994893633568736 -0.033342798002196
-2.007660449931306 -2.492510812630635 0.083641258649871
-2.005300807614217 -2.494802995648177 0.069341800600361
-2.002943016736328 -2.497106411867920 0.055056352675073
-2.000587125791807 -2.499421090839305 0.040785225163218
-1.998233183595757 -2.501747061984634 0.026528730338413
-1.995881239284767 -2.504084354596247 0.012287182461545
-1.993531342317457 -2.506432997833676 -0.001939102216463
-1.991183542474990 -2.508793020720787 -0.016149805452034
-1.988837889861568 -2.511164452142882 -0.030344607006442
-1.986494434904911 -2.513547320843792 -0.044523184643436
-1.984153228356712 -2.515941655422938 -0.058685214127017
-1.994961454620912 -3.005900344702850 0.113972056838838
-1.992755177646520 -3.008511257793038 0.100702141855994
-1.990552985402358 -3.011134163127200 0.087460397819955
-1.988354939858071 -3.013769080287329 0.074247217350104
-1.986161103292727 -3.016416028570145 0.061062994944251
-2.511744411676583 5.502844032898145 0.049545304921374
-2.509598683961455 5.502328132196595 0.036234494856136
-2.503747887571757 0.501636264988257 1.063107957790207
-2.501580074537555 0.500691105578481 1.049750302282036
-2.499409610159571 0.499741294299529 1.036377053143564
-2.497236496167492 0.498786812147262 1.022988225234687
-2.495060734345013 0.497827640046132 1.009583833768258
-2.492882326530294 0.496863758848987 0.996163894313032
-2.490701274616438 0.495895149336898 0.982728422796638
-2.488517580551948 0.494921792218972 0.969277435508550
-2.486331246341213 0.493943668132175 0.955810949103103
-2.017694495870252 -1.486821447486389 -0.038606913446049
-2.015200964230476 -1.488651544754437 -0.053813592057731
-2.012706653957868 -1.490491010869482 -0.069023148236633
-2.010211592351555 -1.492339879514298 -0.084235404076355
-2.007715806952970 -1.494198184404518 -0.099450180148037
-2.015877571886497 -1.986618358220074 0.056317919111574
-2.013435055899520 -1.988647774985083 0.041472707649755
-2.010992821858304 -1.990687448432205 0.026631440854571
-2.008550906211329 -1.992737411702735 0.011794353742154
-2.006109345692740 -1.994797697912638 -0.003038316889998
-2.003668177323498 -1.996868340150730 -0.017866332456290
-2.001227438412510 -1.998949371476811 -0.032689452576322
-1.998787166557759 -2.001040824919800 -0.047507435068219
-2.005655657247643 -2.494457459866763 0.100383749952971
-2.003302302805204 -2.496754565991256 0.086153130171290
-2.000950833314592 -2.499062885347299 0.071936684533363
-1.998601297249386 -2.501382447200448 0.057734722442495
-1.996253743402004 -2.503713280687765 0.043547555268854
-1.993908220884240 -2.506055414815011 0.029375496352235
-1.991564779127779 -2.508408878453810 0.015218861004653
-1.989223467884685 -2.510773700338794 0.001077966512844
