ply
format ascii 1.0
element vertex 878
property double x
property double y
property double z
end_header
2.484242837653478 0.562278308321964 2.075908529260052
2.485442822642267 0.558329103757536 2.064570716080294
2.486619088852266 0.554365799837993 2.053457004939536
2.487771442639644 0.550388594513236 2.042569225441998
2.488899692335281 0.546397688871952 2.031909188534232
2.490003648303538 0.542393287121488 2.021478685949848
2.491083123000904 0.538375596566475 2.011279489655423
2.492137931034482 0.534344827586207 2.001313351297901
2.493167889220290 0.530301193610771 1.991582001653730
2.494172816641351 0.526244911095928 1.982087150080038
2.495152534705533 0.522176199496734 1.972830483968121
2.496106867203116 0.518095281239913 1.963813668199532
2.497035640364058 0.514002381694973 1.955038344605050
2.497938682914917 0.509897729144071 1.946506131426825
2.498815826135413 0.505781554750627 1.938218622783975
2.499666903914590 0.501654092526690 1.930177388141952
2.500491752806554 0.497515579299060 1.922383971785920
2.501290212085747 0.493366254674164 1.914839892298493
2.502062123801738 0.489206361001709 1.907546642042078
2.502807332833488 0.485036143337092 1.900505686646143
2.503525686943067 0.480855849402596 1.893718464499688
2.504217036828788 0.476665729547371 1.887186386249223
2.504881236177729 0.472466036706207 1.880910834302515
2.505518141717611 0.468257026357106 1.874893162338444
2.506127613268002 0.464038956477680 1.869134694823201
2.506709513790817 0.459812087500360 1.863636726533165
2.507263709440081 0.455576682266450 1.858400522084699
2.507790069610929 0.451333005979030 1.853427315471196
2.508288466987814 0.447081326154718 1.848718309607618
2.508758777591885 0.442821912574316 1.844274675882833
2.509200880827513 0.438555037232347 1.840097553720014
2.509614659527938 0.434280974285499 1.836188050145375
2.509999999999999 0.430000000000000 1.832547239365534
2.482097659157958 0.569119633847087 2.136112395875507
2.483334253914772 0.565208925957635 2.124468764125279
2.484547632352045 0.561283879855490 2.113043734527321
2.485737599538948 0.557344685991677 2.101839142527564
2.486903962390866 0.553391537944929 2.090856806188158
2.488046529727325 0.549424632404036 2.080098525642114
2.489165112329834 0.545444169148966 2.069566082548645
2.490259522999625 0.541450351030787 2.059261239549470
2.491329576615267 0.537443383950362 2.049185739726369
2.492375090190111 0.533423476835823 2.039341306060227
2.493395882929561 0.529390841618821 2.029729640891862
2.494391776288110 0.525345693209548 2.020352425384889
2.495362594026144 0.521288249470532 2.011211318990920
2.496308162266464 0.517218731189208 2.002307958917355
2.497228309550501 0.513137362049248 1.993643959598047
2.498122866894197 0.509044368600682 1.985220912167137
2.498991667843524 0.504939980228781 1.977040383936308
2.499834548529602 0.500824429121721 1.969103917875788
2.500651347723397 0.496697950237034 1.961413032099323
2.501441906889961 0.492560781266836 1.953969219353468
2.502206070242184 0.488413162601857 1.946773946511430
2.502943684794041 0.484255337294255 1.939828654071768
2.503654600413276 0.480087551019246 1.933134755662243
2.504338669873529 0.475910052035541 1.926693637549076
2.504995748905841 0.471723091144600 1.920506658151920
2.505625696249535 0.467526921648719 1.914575147564818
2.506228373702421 0.463321799307958 1.908900407083422
2.506803646170318 0.459107982295919 1.903483708738777
2.507351381715837 0.454885731154382 1.898326294837903
2.507871451606424 0.450655308746822 1.893429377511512
2.508363730361604 0.446416980210816 1.888794138269071
2.508828095799430 0.442171012909347 1.884421727561535
2.509264429082075 0.437917676381030 1.880313264351987
2.509672614760568 0.433657242289277 1.876469835694464
2.510052540818621 0.429389984370404 1.872892496321230
2.482419060560069 0.568111586571915 2.172758985798032
2.483645513766854 0.564210566754293 2.161250326518820
2.484848859644782 0.560295354474843 2.149958499299082
2.486028905712319 0.556366139022711 2.138885310326270
2.487185461323392 0.552423112767940 2.128032548564420
2.488318337724312 0.548466471143809 2.117401985220040
2.489427348110613 0.544496412627992 2.106995373208728
2.490512307683784 0.540513138722527 2.096814446622820
2.491573033707865 0.536516853932584 2.086860920200286
2.492609345565885 0.532507765744039 2.077136488795180
2.493621064816102 0.528486084599845 2.067642826849859
2.494608015248030 0.524452023875207 2.058381587869285
2.495570022938211 0.520405799851543 2.049354403897637
2.496506916305714 0.516347631689255 2.040562884997538
2.497418526167329 0.512277741399285 2.032008618732138
2.498304685792426 0.508196353813476 2.023693169650344
2.499165230957444 0.504103696553737 2.015618078775470
2.499999999999999 0.500000000000000 2.007784863097574
2.500808833872555 0.495885497256998 2.000195015069757
2.501591576195653 0.491760424119844 1.992850002108713
2.502348073310656 0.487625019038432 1.985751266099788
2.503078174331979 0.483479523080659 1.978900222906843
2.503781731198787 0.479324179894479 1.972298261887177
2.504458598726114 0.475159235668790 1.965946745411808
2.505108634655390 0.470984939093171 1.959847008391357
2.505731699704334 0.466801541316475 1.954000357807854
2.506327657616198 0.462609295904280 1.948408072252692
2.506896375208312 0.458408458795224 1.943071401471023
2.507437722419928 0.454199288256228 1.937991565912873
2.507951572359308 0.449982044836608 1.933169756291238
2.508437801350048 0.445756991321118 1.928607133147413
2.508896288976598 0.441524392681910 1.924304826423841
2.509326918128955 0.437284516029434 1.920263935044733
2.509729575046501 0.433037630562312 1.916485526504715
2.510104149360953 0.428784007516169 1.912970636465761
2.482736750415112 0.567109453684296 2.209190563844995
2.483953158655287 0.563218093082858 2.197815054071408
2.485146568062526 0.559312683995215 2.186654622953335
2.486316788568739 0.555393414552755 2.175711047954400
2.487463631930479 0.551460475921735 2.164986089474701
2.488586911784881 0.547514062285636 2.154481490327648
2.489686443705515 0.543554370826348 2.144198975217639
2.490762045258133 0.539581601704198 2.134140250218755
2.491813536056274 0.535595958036792 2.124307002254770
2.492840737816694 0.531597645876695 2.114700898580713
2.493843474414618 0.527586874187930 2.105323586266241
2.494821571938760 0.523563854821295 2.096176691681079
2.495774858746097 0.519528802488508 2.087261819982805
2.496703165516360 0.515481934735170 2.078580554607219
2.497606325306228 0.511423471912549 2.070134456761584
2.498484173603184 0.507353637148186 2.061925064920975
2.499336548379003 0.503272656315335 2.053953894328041
2.500163290142857 0.499180758001217 2.046222436496418
2.500964241993996 0.495078173474122 2.038732158718058
2.501739249673977 0.490965136649335 2.031484503574778
2.502488161618425 0.486841884053910 2.024480888454255
2.503210829008275 0.482708654790293 2.017722705070765
2.503907105820491 0.478565690498795 2.011211318990921
2.504576848878214 0.474413235318931 2.004948069164678
2.505219917900320 0.470251535849630 1.998934267461892
2.505836175550356 0.466080841108324 1.993171198214659
2.506425487484831 0.461901402488924 1.987660117765753
2.506987722400826 0.457713473718705 1.982402254023372
2.507522752082897 0.453517310814097 1.977398806022501
2.508030451449246 0.449313172035400 1.972650943493128
2.508510698597136 0.445101317840442 1.968159806435570
2.508963374847513 0.440882010837187 1.963926504703185
2.509388364788804 0.436655515735308 1.959952117592708
2.509785556319891 0.432422099296747 1.956237693442457
2.510154840692201 0.428182030285269 1.952784249238690
2.483050778693180 0.566113187746469 2.245408854570621
2.484257237444530 0.562231457350144 2.234164700211840
2.485440805361842 0.558335820693024 2.223133887644506
2.486601294755208 0.554426464752980 2.212318166132163
2.487738519748482 0.550503579497509 2.201719268034134
2.488852296334261 0.546567357866097 2.191338908293125
2.489942442428775 0.542617995751443 2.181178783923664
2.491008777926659 0.538655691979545 2.171240573501615
2.492051124755577 0.534680648288630 2.161525936655038
2.493069306930692 0.530693069306931 2.152036513556611
2.494063150608928 0.526693162529320 2.142773924417881
2.495032484143007 0.522681138292781 2.133739768985609
2.495977138135242 0.518657209750723 2.124935626040440
2.496896945491054 0.514621592846149 2.116363052898162
2.497791741472172 0.510574506283662 2.108023584913829
2.498661363749508 0.506516171500324 2.099918734988984
2.499505652455674 0.502446812635357 2.092049993082242
2.500324450237097 0.498366656498710 2.084418825723517
2.501117602305731 0.494275932538470 2.077026675532125
2.501884956490311 0.490174872807139 2.069874960739047
2.502626363287142 0.486063711926779 2.062965074713600
2.503341675910390 0.481942687053026 2.056298385494779
2.504030750341824 0.477812037837989 2.049876235327548
2.504693445380028 0.473672006392026 2.043699940204300
2.505329622689004 0.469522837244427 2.037770789411807
2.505939146846175 0.465364777302994 2.032090045083861
2.506521885389743 0.461198075812537 2.026658941759897
2.507077708865377 0.457022984312295 2.021478685949847
2.507606490872210 0.452839756592292 2.016550455705484
2.508108108108107 0.448648648648649 2.011875400198496
2.508582440414186 0.444449918637845 2.007454639305563
2.509029370818561 0.440243826829969 2.003289263200663
2.509448785579282 0.436030635560947 1.999380331954879
2.509840574226448 0.431810609183783 1.995728875143924
2.510204629603459 0.427584014018824 1.992335891463652
2.483361194575389 0.565122741761225 2.281415566513253
2.484557798224408 0.561250612411907 2.270301001828942
2.485731618539189 0.557364717301626 2.259398058463303
2.486882470173315 0.553465242259104 2.248708457992821
2.488010169583208 0.549552376058205 2.238233905248491
2.489114535082158 0.545626310400312 2.227976087813914
2.490195386894265 0.541687239895605 2.217936675524265
2.491252547208259 0.537735362043200 2.208117319966392
2.492285840231179 0.533770877210168 2.198519653980249
2.493295092241872 0.529793988609423 2.189145291161950
2.494280131644298 0.525804902276486 2.179995825368642
2.495240789020610 0.521803827045108 2.171072830225488
2.496176897183984 0.517790974521770 2.162377858634974
2.497088291231166 0.513766559059045 2.153912442288812
2.497974808594714 0.509730797727834 2.145678091182669
2.498836289094915 0.505683910288468 2.137676293134001
2.499672574991332 0.501626119160691 2.129908513303215
2.500483511033969 0.497557649392512 2.122376193718440
2.501268944514021 0.493478728627940 2.115080752804139
2.502028725314182 0.489389587073608 2.108023584913831
2.502762705958484 0.485290457464284 2.101206059867168
2.503470741661636 0.481181575027273 2.094629522491632
2.504152690377844 0.477063177445735 2.088295292169096
2.504808412849077 0.472935504820902 2.082204662387507
2.505437772652754 0.468798799633221 2.076358900297947
2.506040636248824 0.464653306702422 2.070759246277320
2.506616873026216 0.460499273146524 2.065406913496912
2.507166355348629 0.456336948339792 2.060303087497097
2.507688958599632 0.452166583869653 2.055448925768390
2.508184561227055 0.447988433492582 2.050845557339155
2.508653044786638 0.443802753088975 2.046494082370160
2.509094293984915 0.439609800617018 2.042395571756245
2.509508196721311 0.435409836065574 2.038551066735349
2.509894644129411 0.431203121406091 2.034961578505115
2.510253530617401 0.426989920543560 2.031628087847319
2.483668046468153 0.564138069168113 2.317212392333309
2.484854888324194 0.560275511568811 2.306225679420203
2.486019053844793 0.556399327007057 2.295448883596007
2.487160359992915 0.552509700166902 2.284883699252733
2.488278625523383 0.548606818633801 2.274531804194993
2.489373671035986 0.544690872877022 2.264394859148342
2.490445319028492 0.540762056230962 2.254474507268562
2.491493393949538 0.536820564875357 2.244772373652073
2.492517722251360 0.532866597814391 2.235290064847729
2.493518132442369 0.528900356854697 2.226029168370231
2.494494455139502 0.524922046582251 2.216991252215394
2.495446523120366 0.520931874338157 2.208177864377514
2.496374171375122 0.516930050193323 2.199590532369065
2.497277237158088 0.512916786922025 2.191230762742979
2.498155560039042 0.508892299974371 2.183100040617758
2.499008981954189 0.504856807447651 2.175199829205644
2.499837347256772 0.500810530056587 2.167531569344114
2.500640502767300 0.496753691102486 2.160096679030941
2.501418297823357 0.492686516441292 2.152896552963054
2.502170584328984 0.488609234450548 2.145932562079469
2.502897216803582 0.484522075995274 2.139206053108529
2.503598052430335 0.480425274392760 2.132718348119676
2.504272951104109 0.476319065376290 2.126470744080059
2.504921775478804 0.472203687057798 2.120464512416155
2.505544391014138 0.468079379889471 2.114700898580712
2.506140666021831 0.463946386624292 2.109181121625223
2.506710471711163 0.459804952275557 2.103906373778178
2.507253682233879 0.455655324075356 2.098877820029350
2.507770174728424 0.451497751432041 2.094096597720358
2.508259829363471 0.447332485886683 2.089563816141715
2.508722529380712 0.443159781068541 2.085280556136646
2.509158161136913 0.438979892649554 2.081247869711872
2.509566614145170 0.434793078297858 2.077466779655621
2.509947781115377 0.430599597630366 2.073938279163072
2.510301557993852 0.426399712164401 2.070663331469477
2.485148554326388 0.559306108562406 2.341940437240030
2.486303156796242 0.555439603443778 2.331288094483201
2.487435008665511 0.551559792027730 2.320845648380583
2.488543930953817 0.547666860716632 2.310614750202079
2.489629746513829 0.543760998753697 2.300597034305970
2.490692280083354 0.539842398204347 2.290794117658267
2.491731358337312 0.535911253936490 2.281207599353203
2.492746809939556 0.531967763599731 2.271839060135161
2.493738465594515 0.528012127603480 2.262690061922201
2.494706158098634 0.524044549093985 2.253762147331484
2.495649722391586 0.520065233930277 2.245056839206777
2.496568995607233 0.516074390659023 2.236575640148302
2.497463817124306 0.512072230488300 2.228320032045148
2.498334028616783 0.508058967260276 2.220291475610515
2.499179474103931 0.504034817422816 2.212491409919981
2.499999999999999 0.500000000000000 2.204921251953074
2.500795455163523 0.495954736561567 2.197582396138385
2.501565690946221 0.491899251191286 2.190476213902424
2.502310561241459 0.487833770454260 2.183604053222518
2.503029922532250 0.483758523363159 2.176967238183944
2.503723633938770 0.479673741343405 2.170567068541567
2.504391557265359 0.475579658197300 2.164404819286204
2.505033557046979 0.471476510067114 2.158481740215973
2.505649500595116 0.467364535397138 2.152799055512861
2.506239258043082 0.463243974894708 2.147357963324725
2.506802702390702 0.459115071490218 2.142159635353016
2.507339709548363 0.454978070296120 2.137205216446402
2.507850158380387 0.450833218564936 2.132495824200570
2.508333930747723 0.446680765646283 2.128032548564418
2.508790911549904 0.442520962942927 2.123816451452881
2.509220988766279 0.438354063865880 2.119848566366591
2.509624053496462 0.434180323788558 2.116129898018655
2.509999999999999 0.430000000000000 2.112661421968700
2.485438842080240 0.558342357571115 2.377446963447588
2.486583972191799 0.554485500690443 2.366917405977828
2.487706459937366 0.550615471844084 2.356596046765689
2.488806128568319 0.546732456256733 2.346484511028018
2.489882803157139 0.542836641951686 2.336584407236525
2.490936310648603 0.538928219732254 2.326897326646972
2.491966479910868 0.535007383162126 2.317424842829544
2.492973141786383 0.531074328544659 2.308168511200632
2.493956129142630 0.527129254901122 2.299129868556295
2.494915276922665 0.523172363947854 2.290310432607563
2.495850422195415 0.519203860072376 2.281711701517873
2.496761404205745 0.515223950308425 2.273335153442811
2.497648064424218 0.511232844309929 2.265182246072439
2.498510246596579 0.507230754323918 2.257254416176403
2.499347796792884 0.503217895162377 2.249553079152092
2.500160563456296 0.499194484173031 2.242079628576027
2.500948397451485 0.495160741209085 2.234835435758784
2.501711152112629 0.491116888597910 2.227821849303605
2.502448683290986 0.487063151108679 2.221040194669033
2.503160849402001 0.482999755918965 2.214491773735686
2.503847511471937 0.478926932580303 2.208177864377514
2.504508533184000 0.474844912982727 2.202099720037704
2.505143780923920 0.470753931318277 2.196258569309495
2.505753123824988 0.466654224043507 2.190655615522128
2.506336433812498 0.462546029840975 2.185292036332165
2.506893585647579 0.458429589579749 2.180168983320419
2.507424456970405 0.454305146274923 2.175287581594689
2.507928928342737 0.450172945046164 2.170648929398580
2.508406883289778 0.446033233075292 2.166254097726598
2.508858208341330 0.441886259562916 2.162104129945738
2.509282793072214 0.437732275684132 2.158200041423837
2.509680530141931 0.433571534543296 2.154542819164844
2.510051315333549 0.429404291127892 2.151133421451285
2.485725796714978 0.557384213206230 2.412746930254213
2.486861544123445 0.553536973265687 2.402338516502593
2.487974756862352 0.549676694065177 2.392136618885453
2.489065260382333 0.545803559657218 2.382142837038421
2.490132881943160 0.541917756851395 2.372358754017505
2.491177450664071 0.538019475195836 2.362785935837882
2.492198797573959 0.534108906957650 2.353425931013922
2.493196755661412 0.530186247102322 2.344280270100636
2.494171159924566 0.526251693272066 2.335350465236786
2.495121847420749 0.522305445763136 2.326638009689895
2.496048657315910 0.518347707502091 2.318144377403347
2.496951430933774 0.514378684021017 2.309871022545816
2.497830011804735 0.510398583431706 2.301819379063253
2.498684245714438 0.506407616398791 2.293990860233661
2.499513980752031 0.502405996111846 2.286386858224859
2.500319067358068 0.498393938256444 2.279008743655502
2.501099358372036 0.494371660984187 2.271857865159543
2.501854709079472 0.490339384881702 2.264935548954411
2.502584977258659 0.486297332938612 2.258243098413082
2.503290023226863 0.482245730514494 2.251781793640323
2.503969709886101 0.478184805304816 2.245552891053299
2.504623902768399 0.474114787305874 2.239557622966791
2.505252470080524 0.470035908778723 2.233797197183241
2.505855282748166 0.465948404212122 2.228272796587868
2.506432214459542 0.461852510284497 2.222985578749057
2.506983141708401 0.457748465824928 2.217936675524265
2.507507943836397 0.453636511773173 2.213127192671655
2.508006503074823 0.449516891138745 2.208558209467697
2.508478704585658 0.445389848959042 2.204230778330930
2.508924436501925 0.441255632256553 2.200145924452128
2.509343589967332 0.437114489995146 2.196304645431064
2.509736059175150 0.432966673035456 2.192707910920125
2.510101741406348 0.428812434089381 2.189356662274925
2.487135915989655 0.552593976123926 2.437553108206619
2.488239941814528 0.548743413582540 2.427469072471814
2.489321367745316 0.544880125769684 2.417591461382540
2.490380023197107 0.541004298287507 2.407921833040348
2.491415739431623 0.537116119435933 2.398461728679858
2.492428349606548 0.533215780193173 2.389212672218207
2.493417688824698 0.529303474195231 2.380176169805938
2.494383594183008 0.525379397714376 2.371353709379562
2.495325904821308 0.521443749636591 2.362746760216029
2.496244461970876 0.517496731438008 2.354356772489276
2.497139109002729 0.513538547160310 2.346185176829109
2.498009691475641 0.509569403385117 2.338233383882649
2.498856057183854 0.505589509207344 2.330502783878508
2.499678056204468 0.501599076207555 2.322994746193968
2.500475540944474 0.497598318423282 2.315710618925380
2.501248366187415 0.493587452319347 2.308651728461959
2.501996389139643 0.489566696757170 2.301819379063256
2.502719469476161 0.485536272963072 2.295214852440500
2.503417469386007 0.481496404495585 2.288839407342027
2.504090253617167 0.477447317211766 2.282694279143041
2.504737689520998 0.473389239232524 2.276780679439903
2.505359647096119 0.469322400906976 2.271099795649188
2.505955999031763 0.465247034775826 2.265652790611736
2.506526620750561 0.461163375533788 2.260440802201887
2.507071390450725 0.457071659991051 2.255464942942141
2.507590189147621 0.452972127033809 2.250726299623473
2.508082900714698 0.448865017583854 2.246225932931481
2.508549411923752 0.444750574557253 2.241964877078615
2.508989612484505 0.440629042822113 2.237944139442681
2.509403395083468 0.436500669155455 2.234164700211843
2.509790655422078 0.432365702199203 2.230627512036313
2.487407130507920 0.551656464651184 2.472562847121369
2.488502056500465 0.547815585725651 2.462595098676753
2.489574491352868 0.543962109889652 2.452832100168385
2.490624266604083 0.540096221544238 2.443275385195194
2.491651215626876 0.536218107748152 2.433926470661843
2.492655173676309 0.532327958198432 2.424786856337381
2.493635977938057 0.528425965210013 2.415858024415348
2.494593467576541 0.524512323694328 2.407141439075593
2.495527483782860 0.520587231136907 2.398638546047957
2.496437869822485 0.516650887573964 2.390350772178083
2.497324471082694 0.512703495567997 2.382279524995525
2.498187135119741 0.508745260182368 2.374426192284411
2.499025711705717 0.504776388954897 2.366792141656822
2.499840052875082 0.500797091870456 2.359378720129166
2.500630012970855 0.496807581332557 2.352187253701701
2.501395448690424 0.492808072133963 2.345219046941480
2.502136219130970 0.488798781426304 2.338475382568881
2.502852185834453 0.484779928688712 2.331957521047982
2.503543212832176 0.480751735695475 2.325666700180971
2.504209166688859 0.476714426482729 2.319604134706831
2.504849916546240 0.472668227314175 2.313771015904481
2.505465334166145 0.468613366645846 2.308168511200633
2.506055293973031 0.464550075089921 2.302797763782536
2.506619673095957 0.460478585377598 2.297659892215854
2.507158351409978 0.456399132321041 2.292755990067870
2.507671211576921 0.452311952774397 2.288087125536244
2.508158139085536 0.448217285593907 2.283654341083512
2.508619022290991 0.444115371597118 2.279458653077567
2.509053752453682 0.440006453521202 2.275501051438285
2.509462223777352 0.435890775980405 2.271782499290553
2.509844333446486 0.431768585422627 2.268303932623847
2.488761141971321 0.546893166257589 2.497516372236812
2.489824671258610 0.543049467752035 2.487866452636641
2.490865651220763 0.539193482350624 2.478421134054221
2.491883917310676 0.535325395877990 2.469181909505648
2.492879306849899 0.531445396757746 2.460150255051790
2.493851659076122 0.527553675992192 2.451327629367427
2.494800815190480 0.523650427141048 2.442715473312074
2.495726618404638 0.519735846299186 2.434315209502708
2.496628913987655 0.515810132073401 2.426128241888591
2.497507549312580 0.511873485558178 2.418155955328413
2.498362373902790 0.507926110310494 2.410399715169946
2.499193239478006 0.503968212323628 2.402860866832422
2.500000000000000 0.500000000000000 2.395540735391866
2.500782511717948 0.496021684123034 2.388440625169563
2.501540633213418 0.492033477828049 2.381561819323887
2.502274225444957 0.488035596572182 2.374905579445711
2.502983151792267 0.484028258103349 2.368473145157580
2.503667278099940 0.480011682428253 2.362265733716905
2.504326472720729 0.475986091779437 2.356284539623322
2.504960606558332 0.471951710581391 2.350530734230508
2.505569553109666 0.467908765415727 2.345005465362582
2.506153188506614 0.463857484985423 2.339709856935371
2.506711391557202 0.459798100078144 2.334645008582692
2.507244043786220 0.455730843528654 2.329811995287891
2.507751029475220 0.451655950180325 2.325211867020840
2.508232235701906 0.447573656845754 2.320845648380582
2.508687552378868 0.443484202266504 2.316714338243839
2.509116872291654 0.439387827071968 2.312818909419585
2.509520091136153 0.435284773737384 2.309160308309870
2.490071946885815 0.542142155526642 2.522696201333299
2.491104215486827 0.538296036875853 2.513360786053492
2.492113881940325 0.534437940015989 2.504229775357011
2.493100785603974 0.530568052105016 2.495304622027444
2.494064767737163 0.526686562841049 2.486586761650016
2.495005671547477 0.522793664441210 2.478077612191220
2.495923342236974 0.518889551619512 2.469778573580376
2.496817627048222 0.514974421563790 2.461691027293266
2.497688375310079 0.511048473911664 2.453816335938090
2.498535438483208 0.507111910725537 2.446155842843917
2.499358670205277 0.503164936466638 2.438710871651841
2.500157926335847 0.499207757968101 2.431482725909067
2.500933065000914 0.495240584407099 2.424472688666109
2.501683946637077 0.491263627276010 2.417682022077300
2.502410434035328 0.487277100352657 2.411111967004852
2.503112392384409 0.483281219669585 2.404763742626649
2.503789689313758 0.479276203482417 2.398638546047956
2.504442194935976 0.475262272237268 2.392737551917324
2.505069781888822 0.471239648537239 2.387061912046788
2.505672325376705 0.467208557107997 2.381612755036671
2.506249703211645 0.463169224762437 2.376391185905115
2.506801795853690 0.459121880364453 2.371398285722583
2.507328486450759 0.455066754791804 2.366635111251530
2.507829660877895 0.451004080898115 2.362102694591425
2.508305207775899 0.446934093473988 2.357802042829340
2.508755018589331 0.442857029207262 2.353734137696294
2.509178987603853 0.438773126642423 2.349899935229559
2.491339997236169 0.537403841724630 2.548096030673343
2.492341146380592 0.533555696792943 2.539071780975013
2.493319645836006 0.529695880918773 2.530251693114454
2.494275338853679 0.525824582504510 2.521637180007716
2.495208070617906 0.521941992433796 2.513229637146762
2.496117688291473 0.518048304049561 2.505030442189641
2.497004041060894 0.514143713131125 2.497040954552744
2.497866980181390 0.510228417870339 2.489262515005357
2.498706359021593 0.506302618846797 2.481696445266718
2.499522033107950 0.502366519002098 2.474344047605744
2.500313860168810 0.498420323613179 2.467206604443658
2.501081700178162 0.494464240264698 2.460285377959712
2.501825415399017 0.490498478820501 2.453581609700181
2.502544870426392 0.486523251394146 2.447096520190869
2.503239932229896 0.482538772318519 2.440831308553289
2.503910470195875 0.478545258114519 2.434787152124740
2.504556356169107 0.474542927458839 2.428965206082472
2.505177464494023 0.470532001150838 2.423366603072149
2.505773672055427 0.466512702078522 2.417992452840776
2.506344858318697 0.462485255183622 2.412843841874348
2.506890905369448 0.458449887425803 2.407921833040343
2.507411697952621 0.454406827745993 2.403227465235328
2.507907123511004 0.450356307028846 2.398761753037814
2.508377072223129 0.446298558064363 2.394525686366589
2.508821437040550 0.442233815508655 2.390520230144708
2.492565746914492 0.532678623275146 2.573709621919806
2.493535922874849 0.528828840317274 2.564993186543579
2.494483406802776 0.524967692174099 2.556480625147254
2.495408045830029 0.521095368404900 2.548173311158133
2.496309689050968 0.517212060991288 2.540072600370765
2.497188187566993 0.513317964314472 2.532179830547622
2.498043394530748 0.509413275131596 2.524496321022076
2.498875165190026 0.505498192551151 2.517023372303822
2.499683356931393 0.501572918007465 2.509762265687006
2.500467829323490 0.497637655234275 2.502714262861190
2.501228444159986 0.493692610237379 2.495880605525387
2.501965065502183 0.489737991266375 2.489262515005358
2.502677559721223 0.485774008785500 2.482861191874339
2.503365795539899 0.481800875443549 2.476677815577439
2.504029644074037 0.477818806042910 2.470713544059850
2.504668978873422 0.473828017507697 2.464969513399110
2.505283675962263 0.469828728851002 2.459446837441587
2.505873613879161 0.465821161141263 2.454146607443382
2.506438673716562 0.461805537467767 2.449069891715859
2.506978739159682 0.457782082905283 2.444217735275955
2.507493696524866 0.453751024477843 2.439591159501517
2.507983434797376 0.449712591121678 2.435191161791797
2.508447845668582 0.445667013647325 2.431018715233349
2.493749651491111 0.527966887853641 2.599530803120853
2.494689005416326 0.524115849479941 2.591118819940737
2.495605630079957 0.520253750082601 2.582910378962343
2.496499376479270 0.516380780291655 2.574906814516073
2.497370097601997 0.512497133100584 2.567109443107556
2.498217648469754 0.508603003842837 2.559519563028827
2.499041886181188 0.504698590167453 2.552138453971972
2.499842669954822 0.500784092013773 2.544967376645420
2.500619861171588 0.496859711585256 2.538007572393065
2.501373323417023 0.492925653322391 2.531260262816433
2.502102922523096 0.488982123874718 2.524726649400056
2.502808526609665 0.485029332071960 2.518407913140259
2.503490006125527 0.481067488894265 2.512305214177550
2.504147233889046 0.477096807441573 2.506419691432793
2.504780085128337 0.473117502902102 2.500752462247356
2.505388437520983 0.469129792519976 2.495304622027445
2.505972171233266 0.465133895561979 2.490077243892764
2.506531168958895 0.461130033283468 2.485071378329752
2.507065315957199 0.457118428893437 2.480288052849517
2.507574500090774 0.453099307518739 2.475728271650708
2.508058611862567 0.449072896167486 2.471393015287474
2.494892167990919 0.523269012485811 2.625553469626826
2.495800855741398 0.519417095631880 2.617442567263572
2.496686782030724 0.515554420237439 2.609534832587965
2.497549801704881 0.511681177918585 2.601831561237635
2.498389771626508 0.507797562596043 2.594334030849683
2.499206550717278 0.503903770470991 2.587043500682318
2.499999999999999 0.500000000000000 2.579961211239153
2.500769982640390 0.496086451869085 2.573088383896293
2.501516363988521 0.492163328966885 2.566426220532426
2.502239011619896 0.488230836356956 2.559975903162100
2.502937795376165 0.484289181249202 2.553738593572376
2.503612587405433 0.480338572970429 2.547715432963017
2.504263262202147 0.476379222934046 2.541907541590432
2.504889696646551 0.472411344608901 2.536316018415539
2.505491770043677 0.468435153487274 2.530941940755727
2.506069364161849 0.464450867052023 2.525786363941125
2.506622363270701 0.460458704742898 2.520850320975321
2.507150654178659 0.456458887922024 2.516134822200761
2.507654126269889 0.452451639838568 2.511640854968966
2.496871936659545 0.514732939550082 2.643958384334420
2.497727329927264 0.510870057634712 2.636347935342119
2.498559793154544 0.506996910422410 2.628941495324101
2.499369187058746 0.503113692678028 2.621740303480458
2.500155374439767 0.499220601387506 2.614745580482922
2.500918220221081 0.495317835732173 2.607958528109743
2.501657591490439 0.491405597062175 2.601380328883526
2.502373357540228 0.487484088869054 2.595012145712223
2.503065389907441 0.483553516757465 2.588855121533457
2.503733562413268 0.479614088416044 2.582910378962343
2.504377751202259 0.475666013587440 2.577179019943006
2.504997834781058 0.471709504037496 2.571662125403969
2.505593694056683 0.467744773523606 2.566360754917583
2.506165212374334 0.463772037762245 2.561275946363690
2.506712275554692 0.459791514395678 2.556408715597682
2.499529823012843 0.502328316440396 2.656230634283498
2.500308820206381 0.498445856034547 2.649322275892979
2.501064599976872 0.494553823258807 2.642619815907034
2.501797031123370 0.490652417938095 2.636124417851227
2.502505984628952 0.486741842005796 2.629837225882625
2.503191333699979 0.482822299475763 2.623759364441618
2.503852953804965 0.478893996413507 2.617891937907181
2.504490722713043 0.474957140906539 2.612236030255802
2.505104520531993 0.471011943033905 2.606792704724208
3.444777239195845 4.540853883682013 -0.127595032788483
3.447237222142560 4.539120247450099 -0.147720185845847
3.449700549124955 4.537376446884999 -0.167872696503378
3.452167202042403 4.535622427779740 -0.188052416679622
3.454637162459611 4.533858135694770 -0.208259195555192
3.457110411602979 4.532083515958081 -0.228492879543012
3.459586930356934 4.530298513665358 -0.248753312258332
3.462066699260232 4.528503073680159 -0.269040334488469
3.453119178183118 3.544493679546148 -0.195840546091018
3.455717295880987 3.542147084345896 -0.217095781376478
3.458316480491290 3.539786118905182 -0.238359745086690
3.460916675339459 3.537410714475352 -0.259631973566257
3.463517823020273 3.535020802222312 -0.280911997182309
3.466119865391805 3.532616313231130 -0.302199340274971
3.468722743569357 3.530197178510735 -0.323493521107744
3.471326397919375 3.527763328998699 -0.344794051817746
3.465234203791938 2.546011536993312 -0.294953731000253
3.467778114924013 2.542813633437596 -0.315765501653268
3.470317099182366 2.539596871667259 -0.336536965487120
3.472851027177493 2.536361199129544 -0.357267063964568
3.475379768377757 2.533106563964978 -0.377954729204575
3.477903191107923 2.529832915023305 -0.398598883970297
3.480421162547858 2.526540201879568 -0.419198441658464
3.482933548731411 2.523228374850351 -0.439752306290208
3.480829767305184 1.541899759407886 -0.422541242588089
3.482876712328767 1.537671232876712 -0.439287326927662
3.484907296374872 1.533423115948713 -0.455899561893880
3.486921318980404 1.529155464997171 -0.472376307495483
3.488918579354460 1.524868338639320 -0.488715921059455
3.490898876404493 1.520561797752809 -0.504916757445001
3.492862008762884 1.516235905491879 -0.520977169260954
3.494807774813930 1.511890727303251 -0.536895507086590
3.501013314737736 -0.492688879687943 -0.587663111364878
3.500310277703988 -0.497808459585513 -0.581911556083542
3.499577939736755 -0.502919612748830 -0.575920289477426
3.498816412414518 -0.508022093634929 -0.569690224371545
3.498025809982581 -0.513115658432549 -0.563222295408259
3.497206249321904 -0.518200065097103 -0.556517458792242
3.496357849917401 -0.523275073384988 -0.549576692031149
3.495480733825727 -0.528340444887262 -0.542400993672107
3.494807774813930 -1.511890727303251 -0.536895507086590
3.492862008762884 -1.516235905491879 -0.520977169260954
3.490898876404493 -1.520561797752809 -0.504916757445001
3.488918579354460 -1.524868338639320 -0.488715921059455
3.486921318980404 -1.529155464997171 -0.472376307495483
3.484907296374872 -1.533423115948713 -0.455899561893880
3.482876712328767 -1.537671232876712 -0.439287326927662
3.480829767305184 -1.541899759407886 -0.422541242588089
3.482933548731411 -2.523228374850351 -0.439752306290208
3.480421162547858 -2.526540201879568 -0.419198441658464
3.477903191107923 -2.529832915023305 -0.398598883970297
3.475379768377757 -2.533106563964978 -0.377954729204575
3.472851027177493 -2.536361199129544 -0.357267063964568
3.470317099182366 -2.539596871667259 -0.336536965487120
3.467778114924013 -2.542813633437596 -0.315765501653268
3.465234203791938 -2.546011536993312 -0.294953731000253
3.471326397919375 -3.527763328998699 -0.344794051817746
3.468722743569357 -3.530197178510735 -0.323493521107744
3.466119865391805 -3.532616313231130 -0.302199340274971
3.463517823020273 -3.535020802222312 -0.280911997182309
3.460916675339459 -3.537410714475352 -0.259631973566257
3.458316480491290 -3.539786118905182 -0.238359745086690
3.455717295880987 -3.542147084345896 -0.217095781376478
3.453119178183118 -3.544493679546148 -0.195840546091018
3.462066699260232 -4.528503073680159 -0.269040334488469
3.459586930356934 -4.530298513665358 -0.248753312258332
3.457110411602979 -4.532083515958081 -0.228492879543012
3.454637162459611 -4.533858135694770 -0.208259195555192
3.452167202042403 -4.535622427779740 -0.188052416679622
3.449700549124955 -4.537376446884999 -0.167872696503378
3.447237222142560 -4.539120247450099 -0.147720185845847
3.444777239195845 -4.540853883682013 -0.127595032788483
3.440741843360812 4.543680985123955 -0.053475963519046
3.443188993257200 4.541969053279805 -0.073436633929931
3.445639496251591 4.540247105635508 -0.093424654559216
3.448093334943060 4.538515088845996 -0.113439883472730
3.450550491605827 4.536772949336216 -0.133482176086604
3.453010948185735 4.535020633301216 -0.153551385138461
3.455474686296679 4.533258086706252 -0.173647360658345
3.457941687217018 4.531485255286923 -0.193769949939428
3.460411931885953 4.529702084549332 -0.213918997508460
3.462885400899872 4.527908519770262 -0.234094345095976
3.465362074508667 4.526104505997385 -0.254295831606252
3.467841932612024 4.524289988049501 -0.274523293087034
3.470324954755680 4.522464910516789 -0.294776562698997
3.472811120127643 4.520629217761098 -0.315055470684968
3.448080616000448 3.549006655584428 -0.113336138858708
3.450668788147529 3.546694663258385 -0.134447085626119
3.453258128315944 3.544368518537896 -0.155567559594509
3.455848581726277 3.542028153462820 -0.176697113944550
3.458440092888707 3.539673499979998 -0.197835296062352
3.461032605597071 3.537304489947609 -0.218981647491040
3.463626062922917 3.534921055139622 -0.240135703882247
3.466220407209541 3.532523127250326 -0.261296994947455
3.468815580066003 3.530110637898965 -0.282465044409229
3.471411522361140 3.527683518634462 -0.303639369952353
3.474008174217565 3.525241700940227 -0.324819483174849
3.476605475005641 3.522785116239076 -0.346004889538905
3.479203363337464 3.520313695898237 -0.367195088321723
3.481801777060821 3.517827371234449 -0.388389572566274
3.459524394705751 2.553099575756390 -0.206679621956689
3.462071283523561 2.549953084517890 -0.227453832944143
3.464613558798330 2.546787966461145 -0.248190412639696
3.467151094822655 2.543604168016473 -0.268888335685632
3.469683764764376 2.540401636264502 -0.289546567549923
3.472211440664760 2.537180318951522 -0.310164064511419
3.474733993436846 2.533940164504993 -0.330739773646366
3.477251292863960 2.530681122049206 -0.351272632816250
3.479763207598386 2.527403141421097 -0.371761570657021
3.482269605160224 2.524106173186198 -0.392205506569715
3.484770351936410 2.520790168654755 -0.412603350712498
3.487265313179924 2.517455079897984 -0.432954003994189
3.489754353009174 2.514100859764467 -0.453256358069260
3.492237334407576 2.510727461896715 -0.473509295334367
3.475568980101578 1.552530595500436 -0.337550510347378
3.477650322932774 1.548364413717820 -0.354527401843436
3.479715905982748 1.544178625480935 -0.371375745513646
3.481765531508941 1.539973281089517 -0.388093928431029
3.483799001381067 1.535748433018165 -0.404680334506072
3.485816117105836 1.531504135933237 -0.421133344688313
3.487816679852076 1.527240446709473 -0.437451337171300
3.489800490476277 1.522957424446370 -0.453632687600928
3.491767349548543 1.518655130484275 -0.469675769287143
3.493717057378961 1.514333628420198 -0.485578953418995
3.495649414044373 1.509992984123330 -0.501340609283034
3.497564219415560 1.505633265750264 -0.516959104485015
3.499461273184825 1.501254543759902 -0.532432805174916
3.501340374893983 1.496856890928043 -0.547760076275230
3.503022814431331 -0.476616619398998 -0.561483232809628
3.502414017576216 -0.481745687316914 -0.556517458792239
3.501775763751869 -0.486867153791115 -0.551311413079592
3.501108155068048 -0.491980770314010 -0.545865928550480
3.500411296362840 -0.497086289976924 -0.540181860337845
3.499685295173659 -0.502183467506456 -0.534260085592237
3.498930261707690 -0.507272059300240 -0.528101503240721
3.498146308811779 -0.512351823462095 -0.521707033741313
3.497333551941803 -0.517422519836561 -0.515077618833083
3.496492109131508 -0.522483910042806 -0.508214221282034
3.495622100960853 -0.527535757507892 -0.501117824622871
3.494723650523869 -0.532577827499408 -0.493789432896786
3.493796883396022 -0.537609887157442 -0.486230070385363
3.492841927601148 -0.542631705525899 -0.478440781340752
3.501340374893983 -1.496856890928043 -0.547760076275230
3.499461273184825 -1.501254543759902 -0.532432805174916
3.497564219415560 -1.505633265750264 -0.516959104485015
3.495649414044373 -1.509992984123330 -0.501340609283034
3.493717057378961 -1.514333628420198 -0.485578953418995
3.491767349548543 -1.518655130484275 -0.469675769287143
3.489800490476277 -1.522957424446370 -0.453632687600928
3.487816679852076 -1.527240446709473 -0.437451337171300
3.485816117105836 -1.531504135933237 -0.421133344688313
3.483799001381067 -1.535748433018165 -0.404680334506072
3.481765531508941 -1.539973281089517 -0.388093928431029
3.479715905982748 -1.544178625480935 -0.371375745513646
3.477650322932774 -1.548364413717820 -0.354527401843436
3.475568980101578 -1.552530595500436 -0.337550510347378
3.492237334407576 -2.510727461896715 -0.473509295334367
3.489754353009174 -2.514100859764467 -0.453256358069260
3.487265313179924 -2.517455079897984 -0.432954003994189
3.484770351936410 -2.520790168654755 -0.412603350712498
3.482269605160224 -2.524106173186198 -0.392205506569715
3.479763207598386 -2.527403141421097 -0.371761570657021
3.477251292863960 -2.530681122049206 -0.351272632816250
3.474733993436846 -2.533940164504993 -0.330739773646366
3.472211440664760 -2.537180318951522 -0.310164064511419
3.469683764764376 -2.540401636264502 -0.289546567549923
3.467151094822655 -2.543604168016473 -0.268888335685632
3.464613558798330 -2.546787966461145 -0.248190412639696
3.462071283523561 -2.549953084517890 -0.227453832944143
3.459524394705751 -2.553099575756390 -0.206679621956689
3.481801777060821 -3.517827371234449 -0.388389572566274
3.479203363337464 -3.520313695898237 -0.367195088321723
3.476605475005641 -3.522785116239076 -0.346004889538905
3.474008174217565 -3.525241700940227 -0.324819483174849
3.471411522361140 -3.527683518634462 -0.303639369952353
3.468815580066003 -3.530110637898965 -0.282465044409229
3.466220407209541 -3.532523127250326 -0.261296994947455
3.463626062922917 -3.534921055139622 -0.240135703882247
3.461032605597071 -3.537304489947609 -0.218981647491040
3.458440092888707 -3.539673499979998 -0.197835296062352
3.455848581726277 -3.542028153462820 -0.176697113944550
3.453258128315944 -3.544368518537896 -0.155567559594509
3.450668788147529 -3.546694663258385 -0.134447085626119
3.448080616000448 -3.549006655584428 -0.113336138858708
3.472811120127643 -4.520629217761098 -0.315055470684968
3.470324954755680 -4.522464910516789 -0.294776562698997
3.467841932612024 -4.524289988049501 -0.274523293087034
3.465362074508667 -4.526104505997385 -0.254295831606252
3.462885400899872 -4.527908519770262 -0.234094345095976
3.460411931885953 -4.529702084549332 -0.213918997508460
3.457941687217018 -4.531485255286923 -0.193769949939428
3.455474686296679 -4.533258086706252 -0.173647360658345
3.453010948185735 -4.535020633301216 -0.153551385138461
3.450550491605827 -4.536772949336216 -0.133482176086604
3.448093334943060 -4.538515088845996 -0.113439883472730
3.445639496251591 -4.540247105635508 -0.093424654559216
3.443188993257200 -4.541969053279805 -0.073436633929931
3.440741843360812 -4.543680985123955 -0.053475963519046
3.441611555864949 4.543073442394708 -0.019687074593255
3.444052640642136 4.541363053194475 -0.039539277493979
3.446497052614219 4.539642688787487 -0.059418538917517
3.448944774421837 4.537912296221407 -0.079324717688302
3.451395788383397 4.536171822316654 -0.099257670010204
3.453850076491585 4.534421213666495 -0.119217249438126
3.456307620409838 4.532660416637162 -0.139203306849378
3.458768401468803 4.530889377367987 -0.159215690414805
3.461232400662749 4.529108041771572 -0.179254245569689
3.463699598645964 4.527316355533971 -0.199318814984392
3.466169975729120 4.525514264114908 -0.219409238534776
3.468643511875595 4.523701712748008 -0.239525353272360
3.471120186697782 4.521878646441072 -0.259666993394263
3.473599979453363 4.520045009976354 -0.279833990212878
3.476082869041543 4.518200747910887 -0.300026172125316
3.478568833999273 4.516345804576823 -0.320243364582591
3.448233955629104 3.548870041888606 -0.073543960284526
3.450814527891251 3.546564086498463 -0.094530549782307
3.453396258216753 3.544244058654979 -0.115526557268719
3.455979092273240 3.541909890995151 -0.136531540883972
3.458562975026007 3.539561516064277 -0.157545053056501
3.461147850732167 3.537198866320264 -0.178566640455427
3.463733662934785 3.534821874138006 -0.199595843942853
3.466320354457004 3.532430471813867 -0.220632198526090
3.468907867396152 3.530024591570238 -0.241675233309742
3.471496143117839 3.527604165560198 -0.262724471447683
3.474085122250039 3.525169125872263 -0.283779430094956
3.476674744677168 3.522719404535225 -0.304839620359564
3.479264949534135 3.520254933523093 -0.325904547254159
3.481855675200408 3.517775644760121 -0.346973709647693
3.484446859294044 3.515281470125938 -0.368046600216957
3.487038438665729 3.512772341460776 -0.389122705398066
3.458920024970520 2.553842685718249 -0.160448773570596
3.461460446247464 2.550709939148073 -0.181108833849737
3.463996311106026 2.547558688852117 -0.201731838905292
3.466527495221811 2.544388881582076 -0.222316777664993
3.469053873159396 2.541200464728613 -0.242862630021104
3.471575318370505 2.537993386336452 -0.263368366815570
3.474091703192338 2.534767595119624 -0.283832949826439
3.476602898846065 2.531523040476857 -0.304255331755601
3.479108775435479 2.528259672507116 -0.324634456217848
3.481609201945820 2.524977442025293 -0.344969257731309
3.484104046242773 2.521676300578034 -0.365258661709278
3.486593175071635 2.518356200459727 -0.385501584453450
3.489076454056660 2.515017094728623 -0.405696933148636
3.491553747700597 2.511658937223100 -0.425843605858944
3.494024919384405 2.508281682578082 -0.445940491525479
3.496489831367156 2.504885286241586 -0.465986469965587
3.474452554744525 1.554744525547445 -0.286767587041006
3.476536053497689 1.550601162584854 -0.303711709743235
3.478603990976669 1.546438283249992 -0.320529279867132
3.480656171408040 1.542255936244570 -0.337218705278813
3.482692398622229 1.538054172410406 -0.353778390622725
3.484712476077644 1.533833044746195 -0.370206737517861
3.486716206885213 1.529592608424029 -0.386502144757302
3.488703393833321 1.525332920805674 -0.402663008511062
3.490673839413164 1.521054041458572 -0.418687722532242
3.492627345844503 1.516756032171581 -0.434574678366473
3.494563715101814 1.512438956970422 -0.450322265564631
3.496482748940853 1.508102882132844 -0.465928871898819
3.498384248925608 1.503747876203484 -0.481392883581592
3.500268016455653 1.499374010008420 -0.496712685488403
3.502133852793897 1.494981356669405 -0.511886661383259
3.503981559094718 1.490569991617770 -0.526913194147563
3.503672896186668 -0.470832883223506 -0.524402982812098
3.503099133408463 -0.475954999417091 -0.519736837991457
3.502495976666824 -0.481069839886440 -0.514831645788444
3.501863524075997 -0.486177156579134 -0.509688204120415
3.501201876478113 -0.491276702981429 -0.504307333089340
3.500511137415258 -0.496368234154740 -0.498689874754666
3.499791413100976 -0.501451506771548 -0.492836692901574
3.499042812391227 -0.506526279150713 -0.486748672804755
3.498265446754796 -0.511592311292199 -0.480426720987796
3.497459430243182 -0.516649364911182 -0.473871764978307
3.496624879459980 -0.521697203471552 -0.467084753058891
3.495761913529761 -0.526735592218792 -0.460066654014067
3.494870654066471 -0.531764298212215 -0.452818456873284
3.493951225141361 -0.536783090356580 -0.445341170650111
3.493003753250468 -0.541791739433041 -0.437635824077746
3.492028367281645 -0.546790018129466 -0.429703465340956
3.503981559094718 -1.490569991617770 -0.526913194147563
3.502133852793897 -1.494981356669405 -0.511886661383259
3.500268016455653 -1.499374010008420 -0.496712685488403
3.498384248925608 -1.503747876203484 -0.481392883581592
3.496482748940853 -1.508102882132844 -0.465928871898819
3.494563715101814 -1.512438956970422 -0.450322265564631
3.492627345844503 -1.516756032171581 -0.434574678366473
3.490673839413164 -1.521054041458572 -0.418687722532242
3.488703393833321 -1.525332920805674 -0.402663008511062
3.486716206885213 -1.529592608424029 -0.386502144757302
3.484712476077644 -1.533833044746195 -0.370206737517861
3.482692398622229 -1.538054172410406 -0.353778390622725
3.480656171408040 -1.542255936244570 -0.337218705278813
3.478603990976669 -1.546438283249992 -0.320529279867132
3.476536053497689 -1.550601162584854 -0.303711709743235
3.474452554744525 -1.554744525547445 -0.286767587041006
3.496489831367156 -2.504885286241586 -0.465986469965587
3.494024919384405 -2.508281682578082 -0.445940491525479
3.491553747700597 -2.511658937223100 -0.425843605858944
3.489076454056660 -2.515017094728623 -0.405696933148636
3.486593175071635 -2.518356200459727 -0.385501584453450
3.484104046242773 -2.521676300578034 -0.365258661709278
3.481609201945820 -2.524977442025293 -0.344969257731309
3.479108775435479 -2.528259672507116 -0.324634456217848
3.476602898846065 -2.531523040476857 -0.304255331755601
3.474091703192338 -2.534767595119624 -0.283832949826439
3.471575318370505 -2.537993386336452 -0.263368366815570
3.469053873159396 -2.541200464728613 -0.242862630021104
