ply
format ascii 1.0
element vertex 858
property double x
property double y
property double z
end_header
-1.656324117354543 -3.104920965813191 0.049343559920711
-1.654187529048641 -3.107807019123213 0.037375206084331
-1.652056453789967 -3.110704790004679 0.025440921858313
-1.649930953951651 -3.113614286716944 0.013541072020562
-1.647811092122680 -3.116535517179549 0.001676022550148
-1.645696931106146 -3.119468488969045 -0.010153859383487
-1.656946254706798 -3.464715574607840 0.112812841328679
-1.654974833541715 -3.467788478243309 0.101837878460465
-1.653010581975322 -3.470872967829133 0.090906614864840
-1.651053566777175 -3.473969039686398 0.080019438948904
-1.649103854852487 -3.477076689700904 0.069176739837744
-2.045415688485062 4.827625395849513 0.009481096627681
-2.043083486871755 4.826936351808918 -0.003965811571050
-2.040748382239825 4.826244293972480 -0.017429101991871
-2.038410371754725 4.825549211454825 -0.030908789319624
-2.038907168119466 4.465896347174831 0.031342756915152
-2.036565945650761 4.465174252424051 0.017848851970781
-2.034221810942729 4.464448989049465 0.004338536745626
-2.031874761393303 4.463720545516749 -0.009188201986263
-2.029524794411826 4.462988910249108 -0.022731377377501
-2.027171907419182 4.462254071627122 -0.036291002506576
-2.031390077059331 -0.213450954951613 0.759989450852965
-2.029019842913546 -0.214803716399294 0.746430952263430
-2.026647592291068 -0.216162913359699 0.732861791045330
-2.024273334879331 -0.217528569962428 0.719282027509201
-2.021897080474084 -0.218900710403421 0.705691722606331
-2.019518838980116 -0.220279358944865 0.692090937932988
-2.039928208912478 -0.567844953757052 0.868129516543114
-2.037571365973974 -0.569261052229006 0.854659335596429
-2.035212738272365 -0.570683938502703 0.841179897472554
-2.032852337808336 -0.572113637694098 0.827691276095280
-2.030490176706620 -0.573550174981091 0.814193546119911
-2.028126267216793 -0.574993575603315 0.800686782937841
-2.025760621714070 -0.576443864861931 0.787171062681145
-2.023393252700102 -0.577901068119413 0.773646462227201
-2.021024172803787 -0.579365210799328 0.760113059203320
-2.018653394782065 -0.580836318386114 0.746570931991390
-1.677278755381329 -1.645237493083741 -0.042986119724482
-1.674765264992668 -1.647354357935328 -0.057251465029255
-1.672252168734584 -1.649481200254059 -0.071512871810664
-1.669739500376241 -1.651618049736693 -0.085770138815519
-1.667227293930708 -1.653764936052277 -0.100023063376981
-1.661354555288572 -3.098200577449148 0.104242732068217
-1.659209300420027 -3.101053835381944 0.092240046739700
-1.657069393045123 -3.103918746472689 0.080270377959402
-1.654934894677092 -3.106795319715193 0.068334084881892
-1.652805867047383 -3.109683563773408 0.056431527876135
-1.650682372104006 -3.112583486978282 0.044563068515306
-1.648564472009827 -3.115495097324610 0.032729069566372
-1.646452229140840 -3.118418402467865 0.020929894979572
-2.043060640459832 4.826929591243760 0.029993966028805
-2.040729869942202 4.826238798834987 0.016582123338533
-2.038396204389755 4.825544992942928 0.003153974922337
-2.036059640992847 4.824848162703015 -0.010290493744098
-2.033720176950921 4.824148297210838 -0.023751297125838
-2.031377809472622 4.823445385522005 -0.037228449627995
-2.034312709187204 4.464477154871232 0.038596625267425
-2.031970157244315 4.463750197586737 0.025122340718991
-2.029624698857884 4.463020060943875 0.011631711410353
-2.027276331462732 4.462286733389958 -0.001875275651504
-2.024925052505260 4.461550203329844 -0.015398633385467
-2.022570859443579 4.460810459125792 -0.028938374635477
-2.020213749747647 4.460067489097324 -0.042494512169744
-2.028325367301472 -0.215201072836014 0.770325338567762
-2.025956960120010 -0.216559611668298 0.756804466405458
-2.023586556464340 -0.217924593051504 0.743273064318959
-2.021214166106823 -0.219296041065414 0.729731192959231
-2.018839798928256 -0.220673979855536 0.716178913617265
-2.016463464918605 -0.222058433633003 0.702616288228254
-2.037012943382984 -0.569597413786959 0.878783202994335
-2.034658300903401 -0.571019245288736 0.865352571126280
-2.032301895101946 -0.572447870179795 0.851912819732329
-2.029943738064547 -0.573883313511658 0.838464023047783
-2.027583842001228 -0.575325600397072 0.825006256038080
-2.025222219246903 -0.576774756009806 0.811539594403339
-2.022858882262161 -0.578230805584437 0.798064114582933
-2.020493843634071 -0.579693774416127 0.784579893760070
-2.018127116076975 -0.581163687860405 0.771087009866393
-2.015758712433288 -0.582640571332934 0.757585541586602
-2.013388645674313 -0.584124450309276 0.744075568363075
-1.677401511489945 -1.645134370739851 -0.014025466730162
-1.674892695239840 -1.647246788402426 -0.028237628262202
-1.672384269950551 -1.649369144809022 -0.042445893287975
-1.669876269189946 -1.651501469491752 -0.056650062183012
-1.667368726767938 -1.653643791955306 -0.070849933922783
-1.664861676737354 -1.655796141675451 -0.085045306077940
-1.662355153394788 -1.657958548097529 -0.099235974809553
-1.657812540424229 -3.102921680997129 0.111070833118826
-1.655680138793896 -3.105788825836667 0.099166543575826
-1.653553165977358 -3.108667594973772 0.087295660244298
-1.651431683501027 -3.111557996809195 0.075458541525425
-1.649315753105170 -3.114460039411131 0.063655547006860
-1.647205436742210 -3.117373730512104 0.051887037452323
-2.043713617958604 5.186890026448813 0.009237924666922
-2.041388455627654 5.186223933257420 -0.004119097392153
-2.039060413688026 5.185554953733818 -0.017492326494219
-2.036729489174879 5.184883077571178 -0.030881778133897
-2.038382089722864 4.825540790043432 0.037090100686891
-2.036049865913424 4.824845242945237 0.023696971753380
-2.033714752248435 4.824146671851646 0.010287598809575
-2.031376745952148 4.823445065879201 -0.003138032450396
-2.029035844258062 4.822740414104637 -0.016579936272370
-2.026692044409034 4.822032705564701 -0.030038126841474
-2.024345343657401 4.821321929256031 -0.043512618281449
-2.029724225701631 4.463051089785191 0.045864442353078
-2.027380360582864 4.462319267128151 0.032409792904619
-2.025033594855931 4.461584254402416 0.018938864167017
-2.022683925992600 4.460846040037103 0.005451643379518
-2.020331351476386 4.460104612418916 -0.008051882143675
-2.017975868802692 4.459359959891982 -0.021571725012630
-2.015617475478934 4.458612070757698 -0.035107897760883
-2.025268733335581 -0.216955375850653 0.780672121018053
-2.022902172045880 -0.218319679575346 0.767188828369172
-2.020533634281678 -0.219690432785837 0.753695137924715
-2.018163129899790 -0.221067659511676 0.740191110671943
-2.015790668865584 -0.222451383847518 0.726676808237383
-2.013416261253710 -0.223841629953025 0.713152292890991
-2.034105832851053 -0.571353676664253 0.889446732023751
-2.031753409016889 -0.572781226692088 0.876055589972594
-2.029399243286918 -0.574215575586376 0.862655465380041
-2.027043347831736 -0.575656748333808 0.849246432788312
-2.024685734946079 -0.577104769981593 0.835828567468370
-2.022326417049611 -0.578559665637244 0.822401945424433
-2.019965406687707 -0.580021460468365 0.808966643398521
-2.017602716532254 -0.581490179702423 0.795522738875000
-2.015238359382437 -0.582965848626521 0.782070310085156
-2.012872348165547 -0.584448492587162 0.768609436011777
-2.010504695937775 -0.585938136990017 0.755140196393759
-1.677631514394749 -1.286129009678359 -0.042881656452687
-1.675088125048871 -1.288102670620713 -0.057289945623229
-1.672544417973565 -1.290085690829616 -0.071698553702210
-1.670000421028096 -1.292078100344088 -0.086107314471432
-1.677523810917170 -1.645031656338449 0.014824651048632
-1.675019651536170 -1.647139645301400 0.000665378464669
-1.672515879974021 -1.649257534509839 -0.013490039196282
-1.670012529598889 -1.651385353332446 -0.027641403922316
-1.667509634019140 -1.653523131110761 -0.041788516314904
-1.665007227084200 -1.655670897157693 -0.055931175584159
-1.662505342885408 -1.657828680756038 -0.070069179544162
-1.660004015756857 -1.659996511156967 -0.084202324608300
-1.657503280276239 -1.662174417578505 -0.098330405784635
-2.045486638400638 5.547162587941847 -0.004330103962690
-2.043167978573929 5.546520827455064 -0.017627243998257
-2.041274876881194 5.186191343467218 0.029539762376652
-2.038951027663421 5.185523470110460 0.016216841456579
-2.036624306447483 5.184852710397744 0.002877787364474
-2.034294710292622 5.184179054040532 -0.010477415236535
-2.031962236265398 5.183502490712813 -0.023848781634961
-2.029626881439796 5.182823010050976 -0.037236327070376
-2.033709347711614 4.824145052522904 0.044199983917033
-2.031375686387626 4.823444747424918 0.030825584258939
-2.029039140426133 4.822741407840449 0.017435002268183
-2.026699707085344 4.822035022867327 0.004028223856797
-2.024357383632879 4.821325581563574 -0.009394765002406
-2.022012167345876 4.820613072947253 -0.022833978275148
-2.019664055511110 4.819897485996317 -0.036289429864979
-2.025141727235617 4.461618171994902 0.053146147139504
-2.022796565225415 4.460881481189644 0.039711147272154
-2.020448508481835 4.460141589629755 0.026259933536360
-2.018097554513648 4.459398485726356 0.012792493402997
-2.015743700841543 4.458652157848168 -0.000691185581321
-2.013386944998268 4.457902594321359 -0.014191115793467
-2.011027284528758 4.457149783429403 -0.027707309532963
-2.019855472843183 -0.220083888393879 0.777583905661240
-2.017488819785253 -0.221460400773520 0.764127878976167
-2.015120220189954 -0.222843393449650 0.750661647367990
-2.012749684106748 -0.224232890465663 0.737185272794638
-2.010377221694491 -0.225628915929336 0.723698817856660
-2.031206869315826 -0.573113710373828 0.900119965163461
-2.028856682193404 -0.574546964369444 0.886768253289157
-2.026504774585481 -0.575987022598654 0.873407695191866
-2.024151158746746 -0.577433909982933 0.860038365716166
-2.021795847056062 -0.578887651503564 0.846660340433961
-2.019438852017257 -0.580348272201424 0.833273695648971
-2.017080186259902 -0.581815797176757 0.819878508401233
-2.014719862540103 -0.583290251588954 0.806474856471629
-2.012357893741295 -0.584771660656309 0.793062818386421
-2.009994292875032 -0.586260049655794 0.779642473421806
-2.007629073081787 -0.587755443922802 0.766213901608485
-1.677589676637538 -1.286161402180332 -0.014614985132188
-1.675051013157254 -1.288131536638874 -0.028969411670243
-1.672512033531818 -1.290110996014265 -0.043324161588358
-1.669972765468276 -1.292099810178327 -0.057679069937156
-1.667433236890024 -1.294098009011110 -0.072033970515519
-1.664893475937780 -1.296105622399808 -0.086388695865215
-1.662353510970533 -1.298122680237659 -0.100743077265509
-1.675146136516576 -1.647032926106754 0.029458188452186
-1.672647001534664 -1.649146366715045 0.015355325928089
-1.670148284427188 -1.651269698499599 0.001256473587832
-1.667650018602563 -1.653402950639996 -0.012838170779935
-1.665152237708427 -1.655546152287487 -0.026928408008524
-1.662654975632490 -1.657699332563511 -0.041014037548588
-1.660158266503367 -1.659862520558205 -0.055094857463515
-1.657662144691414 -1.662035745328896 -0.069170664424841
-1.655166644809557 -1.664219035898577 -0.083241253707731
-1.652671801714107 -1.666412421254372 -0.097306419186474
-2.042960152138212 5.546463208979818 0.015797308930805
-2.040642688207163 5.545819635927868 0.002533439404507
-2.038322370445298 5.545173298345524 -0.010746448316896
-2.035999195782770 5.544524186472684 -0.024042370378177
-2.036519508462348 5.184822450107823 0.036514318675855
-2.034194111015327 5.184149916811162 0.023209323510238
-2.031865846246548 5.183474486883711 0.009888253472701
-2.029534711246574 5.182796150017889 -0.003448906568716
-2.027200703113437 5.182114895868657 -0.016802171696910
-2.024863818952735 5.181430714053369 -0.030171556945106
-2.022524055877740 5.180743594151648 -0.043557077296261
-2.029042424348744 4.822742397880174 0.051323558335078
-2.026707341276829 4.822037331532481 0.037967903263109
-2.024369378824066 4.821329220228412 0.024596127497339
-2.022028534282693 4.820618053047244 0.011208217167143
-2.019684804954511 4.819903819028462 -0.002195841536581
-2.017338188150999 4.819186507171595 -0.015616062360708
-2.014988681193436 4.818466106436093 -0.029052458989194
-2.012636281413007 4.817742605741172 -0.042505045042377
-2.018218780650229 4.459436859923467 0.047026342597392
-2.015869449199568 4.458692086841339 0.033594858071002
-2.013517226475376 4.457944090736517 0.020147212747538
-2.011162110035578 4.457192859959923 0.006683394405347
-2.008804097450322 4.456438382819957 -0.006796609099894
-2.006443186302111 4.455680647582343 -0.020292809834385
-2.043661462997403 3.028550935560074 0.422731529045502
-2.041335520268595 3.027722738086791 0.409448296462948
-2.016816856555801 -0.221852206494096 0.787989566305506
-2.014452106909151 -0.223234465322899 0.774571155108106
-2.012085430801028 -0.224623211126076 0.761142670293313
-2.009716838364502 -0.226018467895345 0.747704174146340
-2.007346339842150 -0.227420259686193 0.734255729594192
-2.004973945586767 -0.228828610617758 0.720797400209802
-2.028316044673574 -0.574877483012256 0.910802764548467
-2.025968112209213 -0.576316426363686 0.897490422837188
-2.023618480653310 -0.577762179206166 0.884169370555970
-2.021267162344064 -0.579214766395573 0.870839682847212
-2.018914169743892 -0.580674212846886 0.857501435579205
-2.016559515440194 -0.582140543533961 0.844154705350590
-2.014203212146145 -0.583613783489311 0.830799569494830
-2.011845272701480 -0.585093957803869 0.817436106084708
-2.009485710073274 -0.586581091626751 0.804064393936824
-2.007124537356744 -0.588075210165015 0.790684512616123
-2.004761767776032 -0.589576338683412 0.777296542440430
-1.677482540959528 -0.927250951761197 -0.044264056587500
-1.674920069945494 -0.929095809339886 -0.058748880273200
-1.672356711734241 -0.930949427420481 -0.073237419442456
-1.677547994144816 -1.286193676909128 0.013547610022702
-1.675014039007084 -1.288160297449490 -0.000753254398167
-1.672479769297468 -1.290136208745727 -0.015054446624535
-1.669945212571894 -1.292121440503704 -0.029355802963975
-1.667410396601058 -1.294116022437437 -0.043657158484018
-1.664875349371371 -1.296119984268024 -0.057958347006845
-1.662340099085911 -1.298133355722552 -0.072259201103956
-1.659804674165374 -1.300156166533004 -0.086559552090872
-1.657269103249024 -1.302188446435143 -0.100859230021846
-1.672777637341993 -1.649035638803991 0.044090832717199
-1.670283536478122 -1.651154502255812 0.030044203117376
-1.667789883414936 -1.653283247687134 0.016001737584575
-1.665296711599884 -1.655421904088730 0.001963633678354
-1.662804054718660 -1.657570500421858 -0.012069909672276
-1.660311946696033 -1.659729065616797 -0.026098692164306
-1.657820421696671 -1.661897628571347 -0.040122512116212
-1.655329514125964 -1.664076218149322 -0.054141166463452
-1.652839258630839 -1.666264863179030 -0.068154450754019
-1.650349690100565 -1.668463592451731 -0.082162159144039
-2.040439652104358 5.545763157878620 0.035887718935240
-2.038123387507299 5.545117778610885 0.022657009863457
-2.035804276326868 5.544469634490912 0.009410353881798
-2.033482315516439 5.543818715774627 -0.003852265000151
-2.031157502035159 5.543165012682721 -0.017130862733962
-2.028829832848038 5.542508515400531 -0.030425455231852
-2.031769808605783 5.183446581900459 0.043502369967806
-2.029442878215850 5.182769385010142 0.030215316478237
-2.027113085218326 5.182089281232625 0.016912246387550
-2.024780426735167 5.181406260241447 0.003593144768202
-2.022444899895939 5.180720311672683 -0.009742003257568
-2.020106501837928 5.180031425124805 -0.023093212517138
-2.017765229706240 5.179339590158559 -0.036460497786895
-2.022044840416265 4.820623014539854 0.045123871195772
-2.019705477266431 4.819910128347963 0.031770916718652
-2.017363237357190 4.819194175812054 0.018401889493210
-2.015018118024586 4.818475145953234 0.005016775927856
-2.012670116614506 4.817753027752671 -0.008384437506017
-2.010319230482791 4.817027810151473 -0.021801764273329
-2.007965456995355 4.816299482050515 -0.035235217774660
-2.011296426392229 4.457235766263032 0.040943576356280
-2.008942951246171 4.456482875356666 0.027515739775003
-2.006586588411972 4.455726739106653 0.014071795953920
-2.004227335497242 4.454967345803797 0.000611732980564
-2.001865190122114 4.454204683696271 -0.012864460978610
-2.044147140936328 3.028723531910175 0.456832335219618
-2.041826102521546 3.027897642993450 0.443602804068643
-2.039502239614279 3.027068069200522 0.430357599232321
-2.037175550908352 3.026234796849942 0.417096715363948
-2.043447774223959 1.230633246744481 0.738269866919349
-2.041110671872497 1.229589980291618 0.724982377224111
-2.038770965882591 1.228541894127899 0.711680665316296
-2.036428658540429 1.227488969937331 0.698364747263776
-2.034083752184149 1.226431189341069 0.685034639443435
-2.031736249204244 1.225368533897283 0.671690358543536
-2.029386152043971 1.224300985101025 0.658331921566089
-2.027033463199762 1.223228524384098 0.644959345829234
-2.011423489480272 -0.225012594840113 0.785024834476885
-2.009058755449604 -0.226407080886249 0.771634047219458
-2.006692125244555 -0.227808084421269 0.758233379679476
-2.004323609190932 -0.229215629447963 0.744822895106285
-2.023087690738849 -0.578089580830371 0.908221960985258
-2.020740353044514 -0.579541013511947 0.894940353472399
-2.018391350056802 -0.580999285622593 0.881650245813750
-2.016040694321090 -0.582464422010607 0.868351714169461
-2.013688398507773 -0.583936447582456 0.855044835428545
-2.011334475413035 -0.585415387302543 0.841729687213323
-2.008978937959639 -0.586901266192974 0.828406347883886
-2.006621799197706 -0.588394109333316 0.815074896542562
-2.004263072305502 -0.589893941860347 0.801735413038418
-2.001902770590231 -0.591400788967806 0.788387977971758
-1.679836003374373 -0.925563689839992 -0.002242147316193
-1.677279115528729 -0.927397112665408 -0.016669348908538
-1.674721323032020 -0.929239236424863 -0.031100376612287
-1.672162648377612 -0.931090090532356 -0.045535096278589
-1.669603114248072 -0.932949704435432 -0.059973372664187
-1.667042743516132 -0.934818107614438 -0.074415069425952
-1.664481559245663 -0.936695329581761 -0.088860049115402
-1.677506466053998 -1.286225834505726 0.041606702711900
-1.674977201833022 -1.288188953626577 0.027359102122311
-1.672447624602512 -1.290161329529676 0.013111169347531
-1.669917761768380 -1.292142991756157 -0.001136933165212
-1.667387640949728 -1.294133969855233 -0.015385041740230
-1.664857289979785 -1.296134293383129 -0.029632991468106
-1.662326736906860 -1.298143991902015 -0.043880616200441
-1.659796009995277 -1.300163094978903 -0.058127748544599
-1.657265137726313 -1.302191632184558 -0.072374219858487
-1.654734148799141 -1.304229633092377 -0.086619860245334
-1.670418288534327 -1.651039761885257 0.058722412630953
-1.667929231331670 -1.653164019418841 0.044731838856351
-1.665440651726432 -1.655298149608847 0.030745581661803
-1.662952583203886 -1.657442181257526 0.016763838372020
-1.660465059486568 -1.659596143136462 0.002786807672595
-1.657978114535098 -1.661760063985086 -0.011185310385528
-1.655491782548978 -1.663933972509190 -0.025152314381607
-1.653006097967415 -1.666117897379418 -0.039114001520694
-1.650521095470115 -1.668311867229738 -0.053070167629275
-1.648036809978076 -1.670515910655915 -0.067020607150936
-2.035610057996613 5.544415264859203 0.042743548307420
-2.033292156785384 5.543765320555570 0.029530014062665
-2.030971413199562 5.543112601368896 0.016300587989151
-2.028647824221447 5.542457097536034 0.003055254288572
-2.026321386839249 5.541798799258613 -0.010206002797860
-2.023992098047180 5.541137696702897 -0.023483198988896
-2.021659954845538 5.540473779999675 -0.036776349962726
-2.027025787448010 5.182063757262072 0.050503862111538
-2.024697339393360 5.181381893182166 0.037234766025398
-2.022366033482907 5.180697111977256 0.023949711578904
-2.020031866870064 5.180009403302136 0.010648684048443
-2.017694836716002 5.179318756774143 -0.002668331239104
-2.015354940189759 5.178625161973019 -0.016001348905763
-2.013012174468339 5.177928608440785 -0.029350383521840
-2.017388193564483 4.819201815732105 0.052293430509576
-2.015047445500496 4.818484151544554 0.038959312176955
-2.012703826044662 4.817763410567761 0.025609182871242
-2.010357332567333 4.817039581804617 0.012243029217792
-2.008007962448861 4.816312654218097 -0.001139162094302
-2.005655713079713 4.815582616731122 -0.014537404311530
-2.003300581860584 4.814849458226417 -0.027951710615269
-2.004374738113414 4.455014859885822 0.034898012881370
-2.002017145242965 4.454253815650619 0.021473957236641
-1.999656668395939 4.453489503698565 0.008033848395612
-2.042314744522584 3.028071737357307 0.477619421880179
-2.039995776250686 3.027244476606672 0.464427687349526
-2.037673992899154 3.026413533866547 0.451220360676278
-2.035349393186387 3.025578895492269 0.437997436647095
-2.033021975852960 3.024740547789546 0.424758910183869
-2.030691739661835 3.023898477014299 0.411504776344918
-2.042195056438119 1.230074495743799 0.760141121927650
-2.039860886006546 1.229030586525874 0.746896178942098
-2.037524122770586 1.227981865669258 0.733637098678993
-2.035184769031265 1.226928314926091 0.720363897231609
-2.032842827141396 1.225869915986055 0.707076591000528
-2.030498299505974 1.224806650476240 0.693775196695977
-2.028151188582580 1.223738499961017 0.680459731340180
-2.025801496881798 1.222665445941903 0.667130212269724
-2.023449226967617 1.221587469857435 0.653786657137938
-2.021094381457847 1.220504553083041 0.640429083917287
-2.006040187746061 -0.228194971174279 0.782135646443868
-2.003675538246479 -0.229601708427723 0.768772757310984
-2.001309023129025 -0.231014993539368 0.755400181929664
-2.020215409356082 -0.579866396037901 0.918962730709156
-2.017870383212628 -0.581323493732692 0.905720506552928
-2.015523713217673 -0.582787435829339 0.892469916864344
-2.013175411998979 -0.584258247109086 0.879211038090909
-2.010825492309339 -0.585735952410640 0.865943947407488
-2.008473967027360 -0.587220576629929 0.852668722720717
-2.006120849158234 -0.588712144719868 0.839385442673433
-2.003766151834525 -0.590210681690104 0.826094186649113
-2.001409888316947 -0.591716212606776 0.812795034776342
-1.677076436995949 -0.927542787585688 0.010827556621881
-1.674523306105621 -0.929382185290439 -0.003549972917540
-1.671969298060597 -0.931230283344088 -0.017931171122233
-1.669414435432230 -0.933087111033588 -0.032315903710901
-1.666858740980709 -0.934952697678396 -0.046704035312289
-1.664302237656027 -0.936827072629715 -0.061095429459780
-1.661744948598932 -0.938710265269746 -0.075489948585967
-1.659186897141907 -0.940602305010904 -0.089887454017260
-1.674940500875386 -1.288217505739982 0.055368229591394
-1.672415598783896 -1.290186358868103 0.041173260236387
-1.669890412491388 -1.292164464368444 0.026978115575465
-1.667364969466469 -1.294151851626628 0.012782958039286
-1.664839297390311 -1.296148550035232 -0.001412048719275
-1.662313424157577 -1.298154588992717 -0.015606739819904
-1.659787377877364 -1.300169997902349 -0.029800949149687
-1.657261186874126 -1.302194806171109 -0.043994509357918
-1.654734879688605 -1.304229043208591 -0.058187251850945
-1.652208485078761 -1.306272738425877 -0.072379006787021
-1.649682032020690 -1.308325921234417 -0.086569603071176
-1.668068065207055 -1.653045263024098 0.073352758334092
-1.665584061034141 -1.655174885918563 0.059418063328990
-1.663100564125684 -1.657314372021261 0.045487836054325
-1.660617608003587 -1.659463749946229 0.031562273594273
-1.658135226426029 -1.661623048275683 0.017641574385352
-1.655653453388267 -1.663792295558537 0.003725938220813
-1.653172323123438 -1.665971520308910 -0.010184433745005
-1.650691870103351 -1.668160751004617 -0.024089338992342
-1.648212129039280 -1.670360016085652 -0.037988573631739
-1.645733134882737 -1.672569343952648 -0.051881932399785
-2.030785993372138 5.543060365812321 0.049612613453939
-2.028466470348227 5.542405852513544 0.036416270239215
-2.026144109195196 5.541748554316993 0.023204090254996
-2.023818906924340 5.541088461440592 0.009976057894667
-2.021490860552999 5.540425564067033 -0.003267842408198
-2.019159967104654 5.539759852343646 -0.016527626179313
-2.016826223609012 5.539091316382280 -0.029803308903147
-2.019957504603143 5.179987459817260 0.044267617831758
-2.017624701087065 5.179297997665522 0.031000594532259
-2.015289041689387 5.178605597805930 0.017717656562228
-2.012950523602949 5.177910249837233 0.004418789452705
-2.010609144028606 5.177211943320594 -0.008896021213477
-2.008264900175328 5.176510667779459 -0.022226789801045
-2.010395293196697 4.817051309176348 0.046161256141101
-2.008050310003870 4.816325776732960 0.032830039361977
-2.005702458229671 4.815597146061805 0.019482860185084
-2.003351735288978 4.814865406107830 0.006119705516630
-2.000998138606943 4.814130545775938 -0.007259437672024
-2.042801457724025 3.028245026698354 0.511498981187316
-2.040487363758080 3.027420066973936 0.498360400797919
-2.038170465371674 3.026591441718284 0.485206314521581
-2.035850761285626 3.025759137372653 0.472036717143165
-2.033528250242724 3.024923140329074 0.458851603581204
-2.031202931007932 3.024083436930188 0.445650968889076
-2.028874802368593 3.023240013469104 0.432434808256217
-2.026543863134631 3.022392856189219 0.419203117009314
-2.040946220040146 1.229516432699939 0.781954852999523
-2.038614976471671 1.228471887382611 0.768752263305013
-2.036281150880808 1.227422538490205 0.755535620653890
-2.033944745583228 1.226368367842700 0.742304941163751
-2.031605762946216 1.225309357198008 0.729060241257797
-2.029264205389069 1.224245488251839 0.715801537667155
-2.026920075383499 1.223176742637578 0.702528847433213
-2.024573375454042 1.222103101926155 0.689242187909960
-2.022224108178460 1.221024547625911 0.675941576766354
-2.019872276188158 1.219941061182481 0.662627031988691
-2.017517882168594 1.218852623978655 0.649298571882995
-2.015160928859698 1.217759217334264 0.635956215077425
-2.000667070764596 -0.231399308398819 0.779322175488017
-2.015008562511568 -0.583109588198919 0.916509693020896
-2.012664243059971 -0.584579185295793 0.903298558863629
-2.010318313889647 -0.586055656372134 0.890079269850334
-2.007970787835206 -0.587539026198523 0.876851903437233
-2.005621677857082 -0.589029319602052 0.863616537810763
-2.003270997042303 -0.590526561466078 0.850373251891968
-2.000918758605271 -0.592030776729978 0.837122125340927
-1.676874501266583 -0.927687978925807 0.038227178099165
-1.674326015162491 -0.929524658309383 0.023902851093409
-1.671776656870516 -0.931370008196396 0.009574878498525
-1.669226448851516 -0.933224057714366 -0.004756606357790
-1.666675413753867 -0.935086836023022 -0.019091469067703
-1.664123574414420 -0.936958372313555 -0.033429574137880
-1.661570953859451 -0.938838695807863 -0.047770784984145
-1.659017575305616 -0.940727835757790 -0.062114963926114
-1.656463462160911 -0.942625821444344 -0.076461972181847
-1.653908638025622 -0.944532682176921 -0.090811669862489
-1.672383691183456 -1.290211297259352 0.069132395739840
-1.669863164178749 -1.292185858770170 0.054989915143265
-1.667342381685188 -1.294169668111115 0.040847414926455
-1.664821371232989 -1.296162754512316 0.026705057497494
-1.662300160564294 -1.298165147209739 0.012563006480463
-1.659778777634105 -1.300176875444107 -0.001578573279434
-1.657257250611202 -1.302197968459826 -0.015719515710756
-1.654735607879063 -1.304228455503891 -0.029859653510713
-1.652213878036782 -1.306268365824777 -0.043998818140083
-1.649692089899987 -1.308317728671318 -0.058136839818132
-1.647170272501750 -1.310376573291581 -0.072273547517553
-1.665726942447492 -1.655052110111677 0.087981701314316
-1.663248000499327 -1.657187069687864 0.074102708073051
-1.660769595352800 -1.659331882900189 0.060228332357430
-1.658291760565255 -1.661486578174789 0.046358771005507
-1.655814529929317 -1.663651183904833 0.032494222199146
-1.653337937473689 -1.665825728449051 0.018634885468352
-1.650862017463938 -1.668010240130228 0.004780961695534
-1.648386804403278 -1.670204747233710 -0.009067346880248
-1.645912333033343 -1.672409278005880 -0.022909836659069
-1.643438638334958 -1.674623860652612 -0.036746302675985
-1.656918820883970 -4.186894750047241 0.433140171316598
-2.023646338502015 5.541039392201518 0.043315727112711
-2.021322374613929 5.540377511107348 0.030120809216912
-2.018995573919116 5.539712825316029 0.016910094173004
-2.016665933464122 5.539045324991458 0.003683566606510
-2.014333450301762 5.538375000262161 -0.009558788815677
-2.011998121491220 5.537701841221183 -0.022816987384742
-2.009659944098130 5.537025837925960 -0.036091044349411
-2.015223383827478 5.178586103420393 0.051313817593309
-2.012889098004343 5.177891956860190 0.038064840749444
-2.010551961157794 5.177194862373552 0.024800007616520
-2.008211970512410 5.176494809540801 0.011519303929231
-2.005869123300925 5.175791787904663 -0.001777284525220
-2.003523416764340 5.175085786970161 -0.015089771906504
-2.001053504581313 4.814147858216128 0.026736210707324
-1.998701444692331 4.813411302973843 0.013392106995193
-2.040977013624075 3.027594845862414 0.532156566682682
-2.038664979938923 3.026768526055614 0.519055406478153
-2.036350151156333 3.025938543593345 0.505938820797712
-2.034032526021333 3.025104884953235 0.492806804556970
-2.031712103300919 3.024267536563928 0.479659352804837
-2.029388881784257 3.023426484804924 0.466496460724704
-2.027062860282890 3.022581716006421 0.453318123635620
-2.024734037630939 3.021733216449158 0.440124336993511
-2.022402412685308 3.020880972364256 0.426915096392374
-2.039701248020433 1.228959058629884 0.803711272645667
-2.037372926258591 1.227913883837450 0.790550843933233
-2.035042033204582 1.226863913524908 0.777376445976156
-2.032708571188526 1.225809129579781 0.764188094915281
-2.030372542591983 1.224749513827915 0.750985807195382
-2.028033949848356 1.223685048033344 0.737769599567435
-2.025692795443292 1.222615713898165 0.724539489090955
-2.023349081915082 1.221541493062412 0.711295493136307
-2.021002811855070 1.220462367103927 0.698037629387058
-2.018653987908059 1.219378317538238 0.684765915842326
-2.016302612772719 1.218289325818430 0.671480370819157
-2.013948689202011 1.217195373335026 0.658181012954895
-2.011592220003589 1.216096441415856 0.644867861209594
-2.005124275977636 -0.589345637242531 0.887768566292491
-2.002777598672324 -0.590841584466727 0.874572994906659
-1.674129446227982 -0.929666657838910 0.051258612036614
-1.671584720923201 -0.931509267414599 0.036983571369277
-1.669039150712554 -0.933360546770135 0.022705040352740
-1.666492758133333 -0.935220524906675 0.008423152439794
-1.663945565909982 -0.937089230856551 -0.005861957841042
-1.661397596955048 -0.938966693682522 -0.020150154880220
-1.658848874370129 -0.940852942477020 -0.034441301981884
-1.656299421446813 -0.942748006361377 -0.048735261358560
-1.653749261667634 -0.944651914485043 -0.063031894125853
-1.651198418707015 -0.946564696024808 -0.077331060297169
-1.667319877143222 -1.294187419665561 0.068808898780687
-1.664803511140586 -1.296176907100264 0.054718899207373
-1.662286945855261 -1.298175666766587 0.040629196890673
-1.659770209089279 -1.300183727743908 0.026539955419942
-1.657253328856882 -1.302201119115257 0.012451339599348
-1.654736333385437 -1.304227869966225 -0.001636484547059
-1.652219251116345 -1.306264009383874 -0.015723349770328
-1.649702110705943 -1.308309566455621 -0.029809087591582
-1.647184941026416 -1.310364570268127 -0.043893528297013
-1.644667771166697 -1.312429049906153 -0.057976500932894
-1.660921024617233 -1.659200538877247 0.088785605973657
-1.658447720125236 -1.661350650439877 0.074966903520409
-1.655975015433645 -1.663510634182403 0.061153163626731
-1.653502944368349 -1.665680518309278 0.047344584214355
-1.651031540990311 -1.667860330989383 0.033541364544557
-1.648560839596338 -1.670050100354524 0.019743705222371
-1.646090874719853 -1.672249854497938 0.005951808200740
-1.643621681131660 -1.674459621472761 -0.007834123215352
-1.654821668574494 -4.191667864575005 0.446510927478092
-2.018831771483415 5.539665957352947 0.050228333412238
-2.016506219686179 5.538999489528767 0.037050693422293
-2.014177835429822 5.538330207006662 0.023857311488616
-2.011846615790159 5.537658099931861 0.010648172428243
-2.009512557849412 5.536983158414234 -0.002576738899745
-2.007175658696306 5.536305372528158 -0.015817437593663
-2.004835915426159 5.535624732312399 -0.029073938708739
-2.005820635166557 5.175777215640157 0.031895682535746
-2.003479187326400 5.175072454578021 0.018633157319712
-2.001134887879330 5.174364714476581 0.005354806092322
-1.998787734098443 5.173653984822590 -0.007939385101531
-2.039157548123098 3.026944792478521 0.552768459490683
-2.036847574445515 3.026117119844778 0.539704573010211
-2.034534814961034 3.025285787443885 0.526625340971046
-2.032219268438715 3.024450781789765 0.513530758418078
-2.029900933669580 3.023612089347592 0.500420820529123
-2.027579809466820 3.022769696533636 0.487295522616100
-2.025255894665989 3.021923589715106 0.474154860126216
-2.022929188125222 3.021073755209990 0.460998828643145
-2.020599688725429 3.020220179286901 0.447827423888255
-2.018267395370508 3.019362848164925 0.434640641721787
-2.015932306987552 3.018501748013450 0.421438478144090
-2.036134718452268 1.227356576838670 0.812292133479678
-2.033806752827620 1.226305991680448 0.799159788405910
-2.031476228933896 1.225250601003130 0.786013573358613
-2.029143149166739 1.224190386700199 0.772853504803077
-2.026807515973467 1.223125330603713 0.759679599509109
-2.024469331853466 1.222055414484184 0.746491874553321
-2.022128599358588 1.220980620050447 0.733290347321450
-2.019785321093566 1.219900928949541 0.720075035510668
-2.017439499716406 1.218816322766576 0.706845957131926
-2.015091137938803 1.217726783024620 0.693603130512304
-2.012740238526553 1.216632291184570 0.680346574297372
-2.010386804299960 1.215532828645034 0.667076307453571
-2.008030838134256 1.214428376742206 0.653792349270603
-1.671393486362727 -0.931648063308738 0.064295422621699
-1.668852537249572 -0.933496580478154 0.050069553704543
-1.666310770443788 -0.935353766572776 0.035840348648582
-1.663768208558149 -0.937219650467221 0.021607941025914
-1.661224874392215 -0.939094261066262 0.007372465479945
-1.658680790933274 -0.940977627304070 -0.006865942269384
-1.656135981357280 -0.942869778143451 -0.021107145420351
-1.653590469029784 -0.944770742575078 -0.035351006084218
-1.651044277506886 -0.946680549616706 -0.049597385279989
-1.648497430536159 -0.948599228312377 -0.063846142929166
-1.664785716748572 -1.296191008082872 0.082630044241668
-1.662273779760727 -1.298186147875206 0.068592401386955
-1.659761672067958 -1.300190554940464 0.054555209068536
-1.657249421531096 -1.302204258201479 0.040518630835172
-1.654737056222542 -1.304227286583629 0.026482831444157
-1.652224604427153 -1.306259669013747 0.012447976866282
-1.649712094643158 -1.308301434419020 -0.001585765709189
-1.647199555583035 -1.310352611725885 -0.015618227869571
-1.644687016174424 -1.312413229858898 -0.029649239973828
-1.656134913139021 -1.663370643052151 0.089703383840069
-1.653667347133231 -1.665535886426650 0.075945285833021
-1.651200444095915 -1.667711019993563 0.062192494891941
-1.648734238119117 -1.669896071732262 0.048445210004001
-1.646268763529700 -1.672091069583937 0.034703631491485
-1.643804054890117 -1.674296041450075 0.020967961015883
-2.011695654572691 5.537614507386437 0.043993691429039
-2.009365701610609 5.536940624373099 0.030817658217369
-2.007032917678539 5.536263906804437 0.017625923250166
-2.004697299888179 5.535584344771794 0.004418471578280
-2.002358845357862 5.534901928331028 -0.008804711704200
-2.037343042709242 3.026294871766598 0.573334792588808
-2.035035128742130 3.025465853531208 0.560308034068184
-2.032724438226277 3.024633178429386 0.547266009415699
-2.030410969954596 3.023796833011267 0.534208713804064
-2.028094722741957 3.022956803778478 0.521136142538547
-2.025775695425390 3.022113077183970 0.508048291058139
-2.023453886864289 3.021265639631878 0.494945154936732
-2.021129295940614 3.020414477477355 0.481826729884312
-2.018801921559100 3.019559577026418 0.468693011748131
-2.016471762647457 3.018700924535798 0.455543996513929
-2.014138818156583 3.017838506212776 0.442379680307133
-2.011803087060771 3.016972308215037 0.429200059394080
-2.043578077632482 1.590173379922350 0.827989748346929
-2.041265418719160 1.589190967024227 0.814959352082741
-2.038950132084801 1.588204089122044 0.801914661188439
-2.036632218972967 1.587212729442391 0.788855685310579
-2.032575292929396 1.225748773837156 0.820885860733079
-2.030247701999979 1.224692782952045 0.807781590388381
-2.027917565852575 1.223631976613039 0.794663549085284
-2.025584886948218 1.222566336719925 0.781531753611401
-2.023249667799844 1.221495845111328 0.768386221059449
-2.020911910972677 1.220420483564585 0.755226968829529
-2.018571619084645 1.219340233795622 0.742054014631443
-2.016228794806767 1.218255077458830 0.728867376486996
-2.013883440863575 1.217164996146947 0.715667072732340
-2.011535560033505 1.216069971390934 0.702453122020316
-2.009185155149327 1.214969984659856 0.689225543322806
-2.006832229098539 1.213865017360765 0.675984355933115
-2.004476784823795 1.212755050838575 0.662729579468351
-1.668666604724147 -0.933632161100692 0.077337447340001
-1.666129447036625 -0.935486563249926 0.063160635335927
-1.663591498800425 -0.937349633339446 0.048980640377370
-1.661052782702856 -0.939221400117174 0.034797596150002
-1.658513321617647 -0.941101892360163 0.020611637406360
-1.655973138605869 -0.942991138873842 0.006422899971033
-1.653432256916871 -0.944889168491249 -0.007768479254168
-1.650890699989205 -0.946796010072256 -0.021962362285012
-1.648348491451560 -0.948711692502782 -0.036158610049682
-1.645805655123694 -0.950636244693998 -0.050357082383581
-1.659753166396501 -1.300197357171466 0.082467755591555
-1.657245528554365 -1.302207385782099 0.068482928044940
-1.654737776405079 -1.304226705344228 0.054498866632865
-1.652229938078109 -1.306255344625633 0.040515736059944
-1.649722041914727 -1.308293332394447 0.026533702237936
-1.647214116468889 -1.310340697418056 0.012552932290631
-1.644706190508128 -1.312397468461990 -0.001426405441257
-1.642198293014432 -1.314463674288789 -0.015404141395231
-1.648907003446888 -1.669742657680532 0.077037790046791
-1.646446003024329 -1.671932919449496 0.063346257761614
-2.004559182545795 5.535544095291949 0.037791082746648
-2.002224849206640 5.534862763541290 0.024616767277309
-1.999887686488366 5.534178577322603 0.011426790640378
-1.997547691538989 5.533491526673354 -0.001778861878062
-2.033227624376496 3.024814732252492 0.580865922911683
-2.030919002476267 3.023980721657237 0.567860960087556
-2.028607612069757 3.023143043694780 0.554840805370497
-2.026293451995503 3.022301684903113 0.541805454191784
-2.023976521114200 3.021456631771791 0.528754902116039
-2.021656818308899 3.020607870741785 0.515689144842400
-2.019334342485209 3.019755388205324 0.502608178205701
-2.017009092571504 3.018899170505747 0.489511998177656
-2.014681067519128 3.018039203937339 0.476400600868045
-2.012350266302602 3.017175474745184 0.463273982525930
-2.010016687919830 3.016307969125007 0.450132139540856
-2.007680331392314 3.015436673223022 0.436975068444065
-2.042214182594347 1.589594404111825 0.849208486638430
-2.039904217454129 1.588611168901578 0.836218469522076
-2.037591634939956 1.587623475219029 0.823214239875134
-2.035276436313227 1.586631306348813 0.810195807402276
-2.032958622877540 1.585634645517628 0.797163182056937
-2.030638195979017 1.584633475894091 0.784116374043243
-2.029022973660709 1.224135676239661 0.829492358926333
-2.026695775925002 1.223074284338710 0.816416154065944
-2.024366046049982 1.222008067113309 0.803326277005477
-2.022033786561941 1.220937006469898 0.790222744852750
-2.019699000039289 1.219861084254015 0.777105575021262
-2.017361689112958 1.218780282250171 0.763974785232465
-2.015021856466794 1.217694582181732 0.750830393518065
-2.012679504837969 1.216603965710797 0.737672418222342
-2.010334637017385 1.215508414438079 0.724500878004457
-2.007987255850075 1.214407909902788 0.711315791840816
-2.005637364235628 1.213302433582512 0.698117179027405
-2.003284965128584 1.212191966893098 0.684905059182165
-1.663415433104143 -0.937479181652591 0.076256654479287
-1.660881318444064 -0.939348112979024 0.062125753515687
-1.658346463070377 -0.941225739752400 0.047991955552893
-1.655810889930030 -0.943112090621902 0.033855395446883
-1.653274622156927 -0.945007194264075 0.019716209121186
-1.650737683072858 -0.946911079382047 0.005574533571995
-1.648200096188409 -0.948823774704756 -0.008569493126694
-1.645661885203895 -0.950745308986158 -0.022715731817965
-1.643123074010279 -0.952675711004429 -0.036864042256861
-1.654738493947644 -1.304226126236233 0.082412188993599
-1.652235252177312 -1.306251036131423 0.068480497886040
-1.649731952722260 -1.308285260216067 0.054549888424460
-1.647228623979083 -1.310328827099670 0.040620526455857
-1.644725294556390 -1.312381765389893 0.026692579032839
-1.642221993275671 -1.314444103691439 0.012766214418439
-1.665165531003426 -4.525654638841980 0.629299841411383
-1.663897760885120 -4.529111862540657 0.622612169074742
-1.662641528340916 -4.532577528353598 0.615991398983856
-1.661396886580413 -4.536051588433191 0.609437826547270
-1.660163888527807 -4.539533994443048 0.602951745476192
-1.658942586817222 -4.543024697559218 0.596533447758112
-1.657733033788058 -4.546523648471436 0.590183223630634
-1.656535281480354 -4.550030797384453 0.583901361555125
-2.029118489318497 3.023328422183202 0.588410326525033
-2.026809176368513 3.022489418865816 0.575427167351722
-2.024497102991460 3.021646737716608 0.562428890422508
-2.022182268071518 3.020800365261648 0.549415491426212
-2.019864670515217 3.019950287978664 0.536386966185798
-2.017544309251635 3.019096492296875 0.523343310659514
-2.015221183232609 3.018238964596845 0.510284520942100
-2.012895291432934 3.017377691210330 0.497210593265954
-2.010566632850572 3.016512658420122 0.484121524002332
-2.008235206506862 3.015643852459905 0.471017309662558
-2.005901011446722 3.014771259514080 0.457897946899220
-2.038547093333790 1.588031953282908 0.857424088247884
-2.036237211101182 1.587043450649329 0.844460142836036
-2.033924723074441 1.586050479415721 0.831482076186397
-2.031609630574690 1.585053022866945 0.818489898308063
-2.029291934965471 1.584051064230124 0.805483619459571
-2.026971637653072 1.583044586674504 0.792463250150836
-2.024648740086874 1.582033573311319 0.779428801145089
-2.025477762752344 1.222517310623900 0.838111532793468
-2.023150976649075 1.221450522489864 0.825063383839406
-2.020821671512349 1.220378899225123 0.812001661185953
-2.018489849933572 1.219302422743116 0.798926382259030
-2.016155514556489 1.218221074896638 0.785837564790792
-2.013818668077593 1.217134837477724 0.772735226821901
-2.011479313246507 1.216043692217529 0.759619386703824
-2.009137452866408 1.214947620786207 0.746490063101137
-2.006793089794418 1.213846604792800 0.733347274993841
-2.004446226942019 1.212740625785115 0.720191041679709
-2.002096867275461 1.211629665249617 0.707021382776623
-1.999745013816175 1.210513704611307 0.693838318224938
-1.680530961305427 0.511552432841484 -0.015981655995630
-1.677960896318011 0.510125293336913 -0.030356708097856
-1.675388596985121 0.508691501563698 -0.044743445010444
-1.672814072416858 0.507251032977793 -0.059141811333692
-1.660710478197886 -0.939474401781370 0.089357450327073
-1.658180211962916 -0.941349171573868 0.075275527022784
-1.655649232090886 -0.943232635443183 0.061190857964187
-1.653117561601021 -0.945124821910490 0.047103578105064
-1.650585223699109 -0.947025759523304 0.033013823462231
-1.648052241778422 -0.948935476854716 0.018921731120610
-1.645518639420628 -0.950854002502603 0.004827439238292
-1.642984440396703 -0.952781365088836 -0.009268912948384
-1.647243078406565 -1.310317000527558 0.068585124683793
-1.644744328704951 -1.312366120319475 0.054708285582759
-1.667296303339610 -4.519931897816744 0.664301719695481
-1.666011834497438 -4.523368690128189 0.657526249603340
-1.664738772294653 -4.526813971870605 0.650816805406187
-1.663477170111250 -4.530267696269629 0.644173683100171
-1.662227081051603 -4.533729816063816 0.637597177043684
-1.660988557939845 -4.537200283505749 0.631087579931340
-1.659761653315243 -4.540679050363194 0.624645182767932
-1.658546419427590 -4.544166067920321 0.618270274842342
-1.657342908232591 -4.547661286978954 0.611963143701637
-1.656151171387271 -4.551164657859910 0.605724075125146
-1.654971260245371 -4.554676130404353 0.599553353098587
-1.653803225852772 -4.558195653975234 0.593451259788263
-2.025015644518302 3.021835963498820 0.595967933561690
-2.022705657374436 3.020991967163104 0.583006585740231
-2.020392917919226 3.020144282567233 0.570030194197129
-2.018077425082498 3.019292896225600 0.557038754877744
-2.015759177816628 3.018437794604328 0.544032263862343
-2.013438175096733 3.017578964121122 0.531010717367263
-2.011114415920884 3.016716391145118 0.517974111746103
-2.008787899310303 3.015850061996728 0.504922443490904
-2.006458624309582 3.014979962947491 0.491855709233344
-2.034886843418503 1.586464017239166 0.865652557952400
-2.032577062100807 1.585470250430571 0.852714680519026
-2.030264686599587 1.584472004950102 0.839762772934562
-2.027949718295602 1.583469264083158 0.826796845510778
-2.025632158612245 1.582462011057604 0.813816908809550
-2.023312009015885 1.581450229043635 0.800822973644793
-2.020989271016194 1.580433901153635 0.787815051084409
-2.018663946166499 1.579413010442043 0.774793152452230
-2.019613306116119 1.219821524017477 0.833723184326101
-2.017284444123255 1.218744499631768 0.820689605911948
-2.014953078885938 1.217662612294234 0.807642569782579
-2.012619213113106 1.216575843865273 0.794582093986685
-2.010282849566666 1.215484176144787 0.781508196882002
-2.007943991061877 1.214387590872068 0.768420897137606
-2.005602640467766 1.213286069725673 0.755320213736211
-2.003258800707529 1.212179594323321 0.742206165976479
-2.000912474758935 1.211068146221771 0.729078773475363
-1.998563665654749 1.209951706916712 0.715938056170435
-1.679719991154835 0.511102689352207 0.009111044259884
-1.677153916591938 0.509676068842447 -0.005214379106092
-1.674585618673937 0.508242812671167 -0.019551410500054
-1.672015106493294 0.506802896407239 -0.033899994771071
-1.669442389245551 0.505356295551611 -0.048260076174068
-1.666867476230030 0.503902985537368 -0.062631598365953
-1.664290376850513 0.502442941729793 -0.077014504401705
-1.652961072123031 -0.945242053433950 0.074394143099566
-1.650433318831399 -0.947140052460002 0.060356024876596
-1.647904925274851 -0.949046800876064 0.046315582273549
-1.645375914917196 -0.950962327125058 0.032272952458466
-1.642846311410223 -0.952886659673681 0.018228273667929
-1.668149658795595 -4.517669915975578 0.692461174801767
-1.666860045302974 -4.521094810331721 0.685665023910979
-1.665581761504696 -4.524528193695636 0.678934324663581
-1.664314860667855 -4.527970019870132 0.672269371959937
-1.663059395788977 -4.531420242173787 0.665670459095523
-1.661815419589440 -4.534878813442011 0.659137877734945
-1.660582984510892 -4.538345686028157 0.652671917886295
-1.659362142710671 -4.541820811804691 0.646272867875287
-1.658152946057243 -4.545304142164402 0.639941014319613
-1.656955446125632 -4.548795628021681 0.633676642103284
-1.655769694192865 -4.552295219813849 0.627480034350955
-1.654595741233429 -4.555802867502527 0.621351472402410
-1.653433637914721 -4.559318520575067 0.615291235787050
-1.652283434592521 -4.562842128046051 0.609299602198424
-2.016295063693436 3.018635700315378 0.577644646398179
-2.013978929840603 3.017779299929821 0.564675173996077
-2.011660049802122 3.016919173849915 0.551690724340395
-2.031233436327159 1.584890621148520 0.873893808461499
-2.028923773881639 1.583891593483592 0.860981994970825
-2.026611528893627 1.582888077130912 0.848056242208822
-2.024296702803428 1.581880055376733 0.835116560788168
-2.021979297094200 1.580867511449978 0.822162961572315
-2.019659313292292 1.579850428522104 0.809195455677405
-2.017336752967580 1.578828789706964 0.796214054474216
-2.015011617733810 1.577802578060678 0.783218769590107
